ncols    269
nrows    49
xllcorner    187326
yllcorner    2975706
cellsize    2
NODATA_value    -9999
-9999 -9999 -9999 -9999 -9999 -9999 -9999 -9999 -9999 -9999 -9999 -9999 -9999 -9999 -9999 -9999 -9999 -9999 -9999 -9999 -9999 -9999 -9999 -9999 -9999 -9999 -9999 -9999 -9999 -9999 -9999 -9999 -9999 -9999 -9999 -9999 -9999 -9999 -9999 -9999 -9999 -9999 -9999 -9999 -9999 -9999 -9999 -9999 -9999 -9999 -9999 -9999 -9999 -9999 -9999 -9999 -9999 -9999 -9999 -9999 -9999 -9999 -9999 -9999 -9999 -9999 -9999 -9999 -9999 -9999 -9999 -9999 -9999 -9999 -9999 -9999 -9999 -9999 -9999 -9999 -9999 -9999 -9999 -9999 -9999 -9999 -9999 -9999 -9999 -9999 -9999 -9999 -9999 -9999 -9999 -9999 -9999 -9999 -9999 -9999 -9999 -9999 -9999 -9999 -9999 -9999 -9999 -9999 -9999 -9999 -9999 -9999 -9999 -9999 -9999 -9999 -9999 -9999 -9999 -9999 -9999 -9999 -9999 -9999 -9999 -9999 454.284 453.268 454.182 456.523 457.675 459.171 462.711 464.456 466.048 469.159 471.72 472.599 472.846 473.564 474.474 475.051 475.765 476.22 476.854 476.904 476.83 476.843 477.254 478.114 479.527 481.513 483.405 484.981 486.356 487.784 488.832 488.892 489.138 489.176 488.84 488.214 486.972 486.504 487.344 488.427 489.253 489.558 489.569 489.799 490.118 490.389 490.375 490.227 490.338 490.633 490.591 490.199 490.235 490.441 490.524 490.038 489.661 489.566 489.116 488.973 488.296 486.892 485.244 484.11 483.18 481.953 481.725 483.479 485.381 488.488 491.57 493.904 493.381 492.22 490.771 491.214 491.146 490.614 490.524 492.379 493.565 494.625 495.379 495.924 496.25 496.575 496.718 496.946 498.133 499.012 499.722 500.239 500.535 500.845 501.162 501.637 502.241 502.702 503.123 503.385 503.683 504.054 504.343 504.732 504.911 505.699 507.271 508.046 508.515 509.211 510.241 511.871 513.546 514.229 514.948 515.448 515.691 515.715 515.798 515.972 516.213 516.519 516.883 517.316 517.784 -9999 -9999 -9999 -9999 -9999 -9999 -9999 -9999 -9999 -9999 -9999 -9999 -9999 -9999 -9999 -9999 -9999 -9999
-9999 -9999 -9999 -9999 -9999 -9999 -9999 -9999 -9999 -9999 -9999 -9999 -9999 -9999 -9999 -9999 -9999 -9999 -9999 -9999 -9999 -9999 -9999 -9999 -9999 -9999 -9999 -9999 -9999 -9999 -9999 -9999 -9999 -9999 -9999 -9999 -9999 -9999 -9999 -9999 -9999 -9999 -9999 -9999 -9999 -9999 -9999 -9999 -9999 -9999 -9999 -9999 -9999 -9999 -9999 -9999 -9999 -9999 -9999 -9999 -9999 -9999 -9999 -9999 -9999 -9999 -9999 -9999 -9999 -9999 -9999 -9999 -9999 -9999 -9999 -9999 -9999 -9999 -9999 -9999 -9999 -9999 -9999 -9999 -9999 -9999 -9999 -9999 -9999 -9999 -9999 -9999 -9999 -9999 -9999 -9999 -9999 -9999 -9999 -9999 -9999 -9999 -9999 -9999 -9999 -9999 -9999 -9999 -9999 -9999 -9999 -9999 -9999 -9999 -9999 -9999 -9999 -9999 -9999 -9999 -9999 -9999 -9999 -9999 -9999 453.989 454.615 453.238 453.683 456.159 457.514 459.788 463.343 464.404 465.722 468.984 471.712 472.248 472.286 473.163 474.098 474.403 474.064 475.322 478.572 478.939 477.612 477.014 477.435 478.385 479.813 481.679 483.45 484.967 486.297 487.723 488.7 488.627 488.734 488.539 487.982 486.364 485.494 485.951 486.693 487.383 487.897 488.226 488.543 488.906 489.258 489.44 489.177 489.078 489.382 489.517 489.313 489.189 489.134 488.899 488.934 488.594 488.296 488.317 488.39 488.132 487.073 485.445 484.128 483.071 481.737 480.363 480.567 481.766 484.535 489.225 491.964 492.859 490.643 490.317 489.708 490.211 489.274 487.945 489.32 491.383 492.234 493.759 495.122 495.665 496.101 496.402 496.274 496.723 497.964 498.838 499.538 499.92 500.174 500.411 500.737 501.242 501.726 502.371 502.821 503.115 503.466 503.913 504.375 504.937 505.46 506.383 507.153 507.814 508.377 509.011 510.164 511.809 513.594 515.308 516.725 517.782 517.384 516.244 515.754 515.73 515.867 516.099 516.418 516.836 517.31 517.813 -9999 -9999 -9999 -9999 -9999 -9999 -9999 -9999 -9999 -9999 -9999 -9999 -9999 -9999 -9999 -9999 -9999
-9999 -9999 -9999 -9999 -9999 -9999 -9999 -9999 -9999 -9999 -9999 -9999 -9999 -9999 -9999 -9999 -9999 -9999 -9999 -9999 -9999 -9999 -9999 -9999 -9999 -9999 -9999 -9999 -9999 -9999 -9999 -9999 -9999 -9999 -9999 -9999 -9999 -9999 -9999 -9999 -9999 -9999 -9999 -9999 -9999 -9999 -9999 -9999 -9999 -9999 -9999 -9999 -9999 -9999 -9999 -9999 -9999 -9999 -9999 -9999 -9999 -9999 -9999 -9999 -9999 -9999 -9999 -9999 -9999 -9999 -9999 -9999 -9999 -9999 -9999 -9999 -9999 -9999 -9999 -9999 -9999 -9999 -9999 -9999 -9999 -9999 -9999 -9999 -9999 -9999 -9999 -9999 -9999 -9999 -9999 -9999 -9999 -9999 -9999 -9999 -9999 -9999 -9999 -9999 -9999 -9999 -9999 -9999 -9999 -9999 -9999 -9999 -9999 -9999 -9999 -9999 -9999 -9999 -9999 -9999 -9999 -9999 -9999 451.606 453.539 453.634 453.652 453.094 454.578 456.163 457.573 460.329 463.189 464.05 465.523 468.22 471.11 471.857 471.638 472.695 473.672 473.827 473.607 473.735 477.336 479.332 478.027 477.46 477.785 478.776 480.174 481.889 483.511 484.933 486.17 487.351 488.209 488.5 488.517 488.308 488.181 486.284 485.087 485.463 485.927 486.373 486.682 487.101 487.678 488.134 488.448 488.567 488.085 487.716 487.861 487.88 487.868 488.048 488.215 488.148 487.982 487.639 487.514 487.597 487.505 487.117 485.788 484.175 483.159 482.084 480.003 478.853 479.375 480.908 483.914 487.267 489.858 491.331 488.567 488.308 488.83 489.319 488.944 487.486 488.796 490.797 491.887 493.112 494.388 495.161 495.809 496.02 495.922 496.677 497.978 498.66 499.321 499.704 499.824 499.928 500.311 500.816 501.304 502.079 502.546 502.84 503.314 503.919 504.365 504.924 505.706 506.415 507.088 507.606 508.008 508.439 510.081 511.898 513.666 516.665 518.569 518.806 517.936 516.319 515.495 515.357 515.448 515.629 515.912 516.322 516.807 517.321 517.848 518.383 -9999 -9999 -9999 -9999 -9999 -9999 -9999 -9999 -9999 -9999 -9999 -9999 -9999 -9999 -9999
-9999 -9999 -9999 -9999 -9999 -9999 -9999 -9999 -9999 -9999 -9999 -9999 -9999 -9999 -9999 -9999 -9999 -9999 -9999 -9999 -9999 -9999 -9999 -9999 -9999 -9999 -9999 -9999 -9999 -9999 -9999 -9999 -9999 -9999 -9999 -9999 -9999 -9999 -9999 -9999 -9999 -9999 -9999 -9999 -9999 -9999 -9999 -9999 -9999 -9999 -9999 -9999 -9999 -9999 -9999 -9999 -9999 -9999 -9999 -9999 -9999 -9999 -9999 -9999 -9999 -9999 -9999 -9999 -9999 -9999 -9999 -9999 -9999 -9999 -9999 -9999 -9999 -9999 -9999 -9999 -9999 -9999 -9999 -9999 -9999 -9999 -9999 -9999 -9999 -9999 -9999 -9999 -9999 -9999 -9999 -9999 -9999 -9999 -9999 -9999 -9999 -9999 -9999 -9999 -9999 -9999 -9999 -9999 -9999 -9999 -9999 -9999 -9999 -9999 -9999 -9999 -9999 -9999 -9999 -9999 -9999 446.708 449.575 451.14 453.15 453.436 453.577 453.895 455.338 456.3 457.601 460.902 462.77 463.5 464.821 466.981 469.6 470.762 470.3 471.904 472.941 472.955 472.435 473.053 475.36 477.571 477.697 477.742 478.274 479.294 480.61 482.153 483.607 484.895 486.006 486.986 487.77 488.297 488.591 488.46 488.13 485.005 484.209 484.539 484.978 485.403 485.622 485.971 486.553 487.253 487.682 487.673 486.972 486.368 485.883 485.922 486.333 486.803 487.393 487.492 487.186 486.802 486.683 486.455 486.08 485.544 484.467 483.248 482.298 480.92 478.449 477.663 478.588 480.829 483.935 485.861 486.868 488.24 487.806 487.433 488.803 489.386 488.977 488.06 488.587 490.754 491.935 492.687 493.327 494.402 495.434 495.733 495.933 497.232 498.566 498.638 498.9 499.226 499.36 499.496 499.85 500.325 500.968 501.764 502.282 502.795 503.519 503.961 504.013 504.596 505.417 506.077 506.824 507.347 507.981 508.474 509.901 511.473 512.636 516.403 518.076 517.528 516.382 515.269 514.696 514.686 514.866 515.067 515.346 515.77 516.278 516.802 517.323 517.838 518.342 518.74 -9999 -9999 -9999 -9999 -9999 -9999 -9999 -9999 -9999 -9999 -9999 -9999 -9999
-9999 -9999 -9999 -9999 -9999 -9999 -9999 -9999 -9999 -9999 -9999 -9999 -9999 -9999 -9999 -9999 -9999 -9999 -9999 -9999 -9999 -9999 -9999 -9999 -9999 -9999 -9999 -9999 -9999 -9999 -9999 -9999 -9999 -9999 -9999 -9999 -9999 -9999 -9999 -9999 -9999 -9999 -9999 -9999 -9999 -9999 -9999 -9999 -9999 -9999 -9999 -9999 -9999 -9999 -9999 -9999 -9999 -9999 -9999 -9999 -9999 -9999 -9999 -9999 -9999 -9999 -9999 -9999 -9999 -9999 -9999 -9999 -9999 -9999 -9999 -9999 -9999 -9999 -9999 -9999 -9999 -9999 -9999 -9999 -9999 -9999 -9999 -9999 -9999 -9999 -9999 -9999 -9999 -9999 -9999 -9999 -9999 -9999 -9999 -9999 -9999 -9999 -9999 -9999 -9999 -9999 -9999 -9999 -9999 -9999 -9999 -9999 -9999 -9999 -9999 -9999 -9999 -9999 -9999 -9999 445.273 447.336 449.713 450.856 451.818 452.998 454.133 454.851 456.44 456.73 458.272 461.432 462.582 463.128 464.016 466.151 468.07 469.522 469.677 471.028 472.103 472.173 471.599 472.5 474.603 476.808 477.762 478.291 479.04 480.048 481.218 482.525 483.751 484.859 485.86 486.809 487.631 488.37 489.163 488.836 486.281 483.306 482.889 483.134 483.881 484.276 484.379 484.754 485.464 486.283 486.781 486.564 485.927 485.372 484.909 484.973 485.037 485.652 486.482 486.66 486.202 485.674 485.618 485.101 484.425 483.873 483.276 482.494 481.465 479.283 477.31 476.659 477.983 480.794 484.083 485.561 486.871 489.449 487.422 486.699 488.91 489.25 488.051 488.956 489.071 490.533 491.674 492.301 493.061 494.219 495.12 495.535 496.273 497.718 498.968 498.565 498.41 498.654 498.901 499.093 499.415 500.001 500.796 501.508 502.012 502.68 503.346 503.436 503.464 504.05 504.873 505.628 506.44 507.251 508.125 508.905 509.792 511.139 513.335 515.789 515.95 515.198 514.511 513.88 513.635 513.84 514.154 514.419 514.73 515.194 515.737 516.27 516.771 517.235 517.667 518.018 518.285 518.476 -9999 -9999 -9999 -9999 -9999 -9999 -9999 -9999 -9999 -9999 -9999
-9999 -9999 -9999 -9999 -9999 -9999 -9999 -9999 -9999 -9999 -9999 -9999 -9999 -9999 -9999 -9999 -9999 -9999 -9999 -9999 -9999 -9999 -9999 -9999 -9999 -9999 -9999 -9999 -9999 -9999 -9999 -9999 -9999 -9999 -9999 -9999 -9999 -9999 -9999 -9999 -9999 -9999 -9999 -9999 -9999 -9999 -9999 -9999 -9999 -9999 -9999 -9999 -9999 -9999 -9999 -9999 -9999 -9999 -9999 -9999 -9999 -9999 -9999 -9999 -9999 -9999 -9999 -9999 -9999 -9999 -9999 -9999 -9999 -9999 -9999 -9999 -9999 -9999 -9999 -9999 -9999 -9999 -9999 -9999 -9999 -9999 -9999 -9999 -9999 -9999 -9999 -9999 -9999 -9999 -9999 -9999 -9999 -9999 -9999 -9999 -9999 -9999 -9999 -9999 -9999 -9999 -9999 -9999 -9999 -9999 -9999 -9999 -9999 -9999 -9999 -9999 -9999 -9999 439.557 442.697 445.49 447.649 449.763 450.761 451.545 452.947 454.234 456.327 458.868 457.38 458.794 461.405 462.533 462.854 463.416 465.309 466.651 467.268 467.64 469.988 471.279 471.523 472.429 474.286 475.732 477.623 478.686 479.364 480.157 481.083 482.04 483.022 483.944 484.822 485.739 486.799 487.874 488.816 489.031 487.374 484.04 481.441 480.794 481.659 482.672 482.874 482.972 483.611 484.371 485.124 485.52 485.593 484.939 484.132 484.03 484.225 483.701 484.332 485.7 485.68 484.743 484.326 484.46 483.906 483.231 482.614 482.184 481.719 480.272 477.728 476.533 475.974 477.242 480.402 484.02 485.395 486.891 488.669 486.168 486.321 488.23 488.802 488.947 489.499 489.889 490.411 491.215 491.978 493.089 494.114 494.835 495.467 496.483 497.475 497.979 497.751 498.115 498.621 498.719 498.742 499.162 499.939 500.68 501.245 501.749 502.105 502.414 502.616 502.904 503.451 504.136 504.846 506.202 507.035 507.962 508.685 509.358 511.152 513.163 514.243 514.385 513.538 513.05 512.869 512.799 513.008 513.334 513.655 514.041 514.576 515.167 515.708 516.172 516.556 516.864 517.064 517.17 517.343 517.722 518.187 -9999 -9999 -9999 -9999 -9999 -9999 -9999 -9999 -9999
-9999 -9999 -9999 -9999 -9999 -9999 -9999 -9999 -9999 -9999 -9999 -9999 -9999 -9999 -9999 -9999 -9999 -9999 -9999 -9999 -9999 -9999 -9999 -9999 -9999 -9999 -9999 -9999 -9999 -9999 -9999 -9999 -9999 -9999 -9999 -9999 -9999 -9999 -9999 -9999 -9999 -9999 -9999 -9999 -9999 -9999 -9999 -9999 -9999 -9999 -9999 -9999 -9999 -9999 -9999 -9999 -9999 -9999 -9999 -9999 -9999 -9999 -9999 -9999 -9999 -9999 -9999 -9999 -9999 -9999 -9999 -9999 -9999 -9999 -9999 -9999 -9999 -9999 -9999 -9999 -9999 -9999 -9999 -9999 -9999 -9999 -9999 -9999 -9999 -9999 -9999 -9999 -9999 -9999 -9999 -9999 -9999 -9999 -9999 -9999 -9999 -9999 -9999 -9999 -9999 -9999 -9999 -9999 -9999 -9999 -9999 -9999 -9999 -9999 -9999 -9999 -9999 436.691 439.89 443.039 445.739 447.864 449.46 450.288 451.154 452.35 453.597 455.671 458.562 457.054 457.915 461.022 462.426 462.473 462.543 464.224 465.046 465.42 466.315 468.982 470.779 471.282 472.9 475.134 476.982 478.752 479.806 480.579 481.339 482.084 482.778 483.442 484.08 484.742 485.567 486.691 487.943 488.653 488.021 486.279 483.723 480.962 479.398 481.083 482.037 482.194 482.244 482.817 483.437 483.963 484.2 484.409 483.771 483.049 483.151 483.336 482.482 483.02 484.211 484.142 483.518 483.155 482.959 482.61 482.103 481.3 480.785 480.376 478.595 476.423 475.798 475.415 476.82 480.264 484.021 486.204 487.183 487.109 486.561 488.244 489.456 488.395 488.563 489.256 489.73 490.346 490.836 491.478 492.812 493.909 494.512 495.288 496.233 496.75 496.956 497.431 498.507 499.095 498.423 498.18 499.006 499.829 500.362 500.932 501.44 501.483 501.677 501.974 502.457 503.02 503.576 504.297 505.507 506.648 507.497 508.043 508.861 510.994 512.097 513.15 513.27 512.293 511.923 512.217 512.274 512.299 512.506 512.854 513.341 513.963 514.61 515.158 515.577 515.866 516.025 516.013 515.85 515.913 516.662 517.794 518.69 -9999 -9999 -9999 -9999 -9999 -9999 -9999 -9999
-9999 -9999 -9999 -9999 -9999 -9999 -9999 -9999 -9999 -9999 -9999 -9999 -9999 -9999 -9999 -9999 -9999 -9999 -9999 -9999 -9999 -9999 -9999 -9999 -9999 -9999 -9999 -9999 -9999 -9999 -9999 -9999 -9999 -9999 -9999 -9999 -9999 -9999 -9999 -9999 -9999 -9999 -9999 -9999 -9999 -9999 -9999 -9999 -9999 -9999 -9999 -9999 -9999 -9999 -9999 -9999 -9999 -9999 -9999 -9999 -9999 -9999 -9999 -9999 -9999 -9999 -9999 -9999 -9999 -9999 -9999 -9999 -9999 -9999 -9999 -9999 -9999 -9999 -9999 -9999 -9999 -9999 -9999 -9999 -9999 -9999 -9999 -9999 -9999 -9999 -9999 -9999 -9999 -9999 -9999 -9999 -9999 -9999 -9999 -9999 -9999 -9999 -9999 -9999 -9999 -9999 -9999 -9999 -9999 -9999 -9999 -9999 -9999 -9999 -9999 432.574 434.56 437.428 440.751 443.849 446.601 448.231 448.968 449.728 450.295 451.435 452.859 454.584 457.088 456.539 457.375 460.708 461.993 461.942 461.9 463.288 464.246 464.985 465.85 468.242 470.182 471.361 472.927 474.552 477.022 479.174 480.658 481.68 482.402 482.834 483.219 483.635 484.077 484.579 485.27 486.264 487.289 487.725 486.866 485.226 482.587 480.09 479.859 481.543 481.686 481.532 481.526 481.907 482.154 482.602 482.95 483.112 482.683 482.264 481.94 481.772 481.559 481.893 482.199 482.349 482.177 481.633 481.607 481.466 480.96 479.919 479.283 478.665 477.164 475.645 474.532 474.316 477.846 481.848 483.804 485.936 487.059 486.321 487.368 489.784 490.992 488.847 487.942 488.974 489.549 489.993 490.371 491.196 492.783 493.601 494.313 495.405 496.08 496.11 496.355 497.093 498.317 498.568 497.689 497.81 498.839 499.394 499.846 500.679 501.058 500.895 501.123 501.441 502.048 502.662 503.277 504.089 504.975 505.64 505.768 506.181 507.311 509.425 510.409 510.348 510.402 510.645 510.739 511.319 511.856 511.834 511.847 512.161 512.731 513.426 514.117 514.673 515.063 515.284 515.339 515.201 514.878 514.682 515.633 517.379 518.504 519.359 520.335 521.498 -9999 -9999 -9999 -9999 -9999
-9999 -9999 -9999 -9999 -9999 -9999 -9999 -9999 -9999 -9999 -9999 -9999 -9999 -9999 -9999 -9999 -9999 -9999 -9999 -9999 -9999 -9999 -9999 -9999 -9999 -9999 -9999 -9999 -9999 -9999 -9999 -9999 -9999 -9999 -9999 -9999 -9999 -9999 -9999 -9999 -9999 -9999 -9999 -9999 -9999 -9999 -9999 -9999 -9999 -9999 -9999 -9999 -9999 -9999 -9999 -9999 -9999 -9999 -9999 -9999 -9999 -9999 -9999 -9999 -9999 -9999 -9999 -9999 -9999 -9999 -9999 -9999 -9999 -9999 -9999 -9999 -9999 -9999 -9999 -9999 -9999 -9999 -9999 -9999 -9999 -9999 -9999 -9999 -9999 -9999 -9999 -9999 -9999 -9999 -9999 -9999 -9999 -9999 -9999 -9999 -9999 -9999 -9999 -9999 -9999 -9999 -9999 -9999 -9999 -9999 -9999 -9999 -9999 -9999 430.891 432.563 434.9 438.436 441.753 444.369 446.784 447.746 448.354 448.984 449.245 450.58 452.25 453.809 455.319 455.944 457.189 460.377 461.393 461.464 461.626 463.371 464.46 464.947 465.788 467.44 469.321 471.056 473.614 475.096 476.616 478.976 481.396 482.841 483.117 483.181 483.314 483.586 483.93 484.339 484.889 485.653 486.396 486.619 485.69 483.806 480.501 478.87 480.413 481.416 481.171 480.781 480.55 480.754 480.691 481.153 482.012 482.195 481.815 481.426 480.581 479.922 480.973 481.311 481.345 480.748 481.048 480.858 480.247 480.223 479.555 478.686 477.994 477.168 475.653 474.573 472.165 471.713 477.591 481.43 483.19 485.317 485.944 485.769 487.196 488.299 488.412 487.56 487.481 488.521 489.032 489.547 490.132 491.704 492.901 493.213 494.049 495.27 495.736 495.583 495.625 496.179 497.419 498.097 497.428 498.367 498.81 499.039 499.533 500.24 500.357 500.11 500.463 501.038 501.797 502.304 503.015 503.656 503.991 504.521 504.581 504.879 505.98 507.836 508.416 508.14 509.019 509.473 509.495 509.985 510.702 511.146 511.285 511.627 512.262 513.006 513.727 514.292 514.671 514.865 514.885 514.749 514.482 514.282 515.239 517.044 518.199 519.063 519.947 520.931 521.952 -9999 -9999 -9999 -9999
-9999 -9999 -9999 -9999 -9999 -9999 -9999 -9999 -9999 -9999 -9999 -9999 -9999 -9999 -9999 -9999 -9999 -9999 -9999 -9999 -9999 -9999 -9999 -9999 -9999 -9999 -9999 -9999 -9999 -9999 -9999 -9999 -9999 -9999 -9999 -9999 -9999 -9999 -9999 -9999 -9999 -9999 -9999 -9999 -9999 -9999 -9999 -9999 -9999 -9999 -9999 -9999 -9999 -9999 -9999 -9999 -9999 -9999 -9999 -9999 -9999 -9999 -9999 -9999 -9999 -9999 -9999 -9999 -9999 -9999 -9999 -9999 -9999 -9999 -9999 -9999 -9999 -9999 -9999 -9999 -9999 -9999 -9999 -9999 -9999 -9999 -9999 -9999 -9999 -9999 -9999 -9999 -9999 -9999 -9999 -9999 -9999 -9999 -9999 -9999 -9999 -9999 -9999 -9999 -9999 -9999 -9999 -9999 -9999 -9999 -9999 -9999 427.175 429.057 430.57 432.231 435.531 439.399 442.18 444.574 446.443 447.156 447.685 448.089 448.464 449.745 451.66 453.357 454.998 455.856 457.009 459.662 460.566 460.951 461.403 462.987 464.475 464.957 465.856 467.084 468.688 470.693 474.853 475.803 475.984 478.168 481.284 483.731 483.16 482.952 483.03 483.296 483.638 484.024 484.483 485.092 485.779 485.753 484.792 483.053 480.309 479.382 480.17 480.941 480.623 479.831 479.323 479.198 479.303 479.847 480.749 481.047 480.816 480.388 479.174 479.137 480.018 480.35 480.682 480.768 479.525 478.442 477.603 478.908 478.479 477.689 476.716 475.747 474.454 472.689 470.174 469.686 473.172 479.439 481.243 483.259 484.178 484.891 486.973 487.432 486.965 486.662 487.126 488.026 488.658 489.819 490.509 491.882 492.318 492.494 493.675 494.805 495.128 495.072 495.058 495.311 496.912 498.087 497.721 498.42 498.86 498.752 499.007 499.362 499.301 499.404 499.954 500.691 501.46 502.164 502.855 503.243 503.241 503.404 503.508 503.792 504.633 505.601 505.425 506.022 507.468 508.189 508.372 508.814 509.666 510.212 510.625 511.206 511.924 512.724 513.478 514.048 514.415 514.608 514.651 514.598 514.495 514.594 515.459 516.818 517.818 518.618 519.316 519.953 521.196 522.068 522.042 -9999 -9999
-9999 -9999 -9999 -9999 -9999 -9999 -9999 -9999 -9999 -9999 -9999 -9999 -9999 -9999 -9999 -9999 -9999 -9999 -9999 -9999 -9999 -9999 -9999 -9999 -9999 -9999 -9999 -9999 -9999 -9999 -9999 -9999 -9999 -9999 -9999 -9999 -9999 -9999 -9999 -9999 -9999 -9999 -9999 -9999 -9999 -9999 -9999 -9999 -9999 -9999 -9999 -9999 -9999 -9999 -9999 -9999 -9999 -9999 -9999 -9999 -9999 -9999 -9999 -9999 -9999 -9999 -9999 -9999 -9999 -9999 -9999 -9999 -9999 -9999 -9999 -9999 -9999 -9999 -9999 -9999 -9999 -9999 -9999 -9999 -9999 -9999 -9999 -9999 -9999 -9999 -9999 -9999 -9999 -9999 -9999 -9999 -9999 -9999 -9999 -9999 -9999 -9999 -9999 -9999 -9999 -9999 -9999 -9999 -9999 -9999 -9999 425.886 427.101 428.833 430.375 432.023 435.89 440.141 442.034 444.203 445.926 446.609 446.95 447.101 447.26 448.352 450.659 452.667 454.796 455.758 456.397 458.042 459.329 460.256 461.306 462.687 464.193 464.809 465.558 466.583 467.98 469.946 473.603 473.874 475.241 477.367 480.219 483.188 482.411 482.285 482.476 482.84 483.248 483.659 484.06 484.484 485.286 485.493 484.061 482.258 479.639 478.672 479.389 479.825 479.152 478.225 477.545 477.216 477.848 478.418 479.033 479.589 479.581 478.999 477.29 477.383 478.881 479.198 479.78 479.712 477.664 476.377 476.712 477.697 477.416 476.207 474.725 473.411 471.595 470.013 468.891 468.76 470.219 474.838 478.833 481.188 482.342 484.07 486.661 486.491 485.959 486.218 486.686 487.513 488.475 489.892 490.943 491.524 491.706 492.048 493.306 494.464 494.571 494.542 494.462 494.679 495.801 496.492 496.637 497.459 498.562 498.626 498.648 498.738 498.754 499.11 499.782 500.368 501.045 501.669 502.344 502.636 502.432 502.382 502.533 502.639 503.008 503.573 503.957 504.706 505.887 506.807 507.273 507.712 508.771 509.54 510.128 510.892 511.722 512.602 513.393 513.953 514.296 514.505 514.62 514.696 514.784 515.077 515.76 516.638 517.405 518.09 518.645 519.073 520.325 520.891 520.974 521.242 -9999
-9999 -9999 -9999 -9999 -9999 -9999 -9999 -9999 -9999 -9999 -9999 -9999 -9999 -9999 -9999 -9999 -9999 -9999 -9999 -9999 -9999 -9999 -9999 -9999 -9999 -9999 -9999 -9999 -9999 -9999 -9999 -9999 -9999 -9999 -9999 -9999 -9999 -9999 -9999 -9999 -9999 -9999 -9999 -9999 -9999 -9999 -9999 -9999 -9999 -9999 -9999 -9999 -9999 -9999 -9999 -9999 -9999 -9999 -9999 -9999 -9999 -9999 -9999 -9999 -9999 -9999 -9999 -9999 -9999 -9999 -9999 -9999 -9999 -9999 -9999 -9999 -9999 -9999 -9999 -9999 -9999 -9999 -9999 -9999 -9999 -9999 -9999 -9999 -9999 -9999 -9999 -9999 -9999 -9999 -9999 -9999 -9999 -9999 -9999 -9999 -9999 -9999 -9999 -9999 -9999 -9999 -9999 -9999 -9999 424.428 424.979 425.721 426.904 428.718 430.194 431.621 435.391 439.38 441.902 443.872 445.121 445.52 445.736 445.87 446.125 446.922 449.513 452.045 454.345 455.584 456.174 457.298 458.637 459.9 461.35 462.828 464.131 464.597 465.245 466.136 467.141 468.801 470.823 472.423 474.801 476.333 478.847 480.805 481.281 481.585 481.95 482.42 482.887 483.334 483.676 483.63 483.647 484.001 483.149 481.414 478.651 477.78 478.51 478.384 477.694 477.126 476.458 475.953 475.808 475.935 476.87 477.851 477.955 476.966 475.942 475.943 477.25 478.396 479.195 478.359 476.481 475.351 475.857 475.764 475.123 473.31 470.893 469.66 469.264 468.879 468.118 468.552 470.063 471.95 475.354 479.398 480.719 482.124 485.068 486.247 485.694 485.664 485.9 486.558 487.941 489.264 490.415 490.901 491.323 491.848 492.834 493.916 494.097 494.081 493.941 494.299 495.177 495.419 495.91 496.796 497.809 498.343 498.299 498.241 498.421 498.904 499.461 499.985 500.476 500.931 501.705 501.831 501.56 501.639 501.752 501.859 502.233 503.059 503.449 503.898 504.631 505.574 506.211 506.841 507.978 508.872 509.75 510.765 511.792 512.765 513.536 513.971 514.25 514.467 514.651 514.838 515.06 515.378 515.854 516.418 516.974 517.535 518.035 518.547 519.526 519.863 520.106 520.33 -9999
-9999 -9999 -9999 -9999 -9999 -9999 -9999 -9999 -9999 -9999 -9999 -9999 -9999 -9999 -9999 -9999 -9999 -9999 -9999 -9999 -9999 -9999 -9999 -9999 -9999 -9999 -9999 -9999 -9999 -9999 -9999 -9999 -9999 -9999 -9999 -9999 -9999 -9999 -9999 -9999 -9999 -9999 -9999 -9999 -9999 -9999 -9999 -9999 -9999 -9999 -9999 -9999 -9999 -9999 -9999 -9999 -9999 -9999 -9999 -9999 -9999 -9999 -9999 -9999 -9999 -9999 -9999 -9999 -9999 -9999 -9999 -9999 -9999 -9999 -9999 -9999 -9999 -9999 -9999 -9999 -9999 -9999 -9999 -9999 -9999 -9999 -9999 -9999 -9999 -9999 -9999 -9999 -9999 -9999 -9999 -9999 -9999 -9999 -9999 -9999 -9999 -9999 -9999 -9999 -9999 -9999 -9999 -9999 423.69 423.949 424.691 425.43 426.675 428.506 430.167 431.84 435.797 439.602 441.466 442.906 444.128 444.37 444.178 444.654 445.313 445.869 447.674 450.576 453.35 454.978 455.874 457.018 458.412 459.732 461.388 463.065 463.952 464.388 464.872 465.754 466.782 468.241 470.119 471.675 473.24 475.132 477.445 479.593 480.315 480.964 481.542 482.092 482.592 483.084 483.396 483.355 483.206 483.069 482.283 480.641 478.086 477.508 477.66 477.257 476.788 476.323 475.758 475.091 474.354 474.115 474.949 475.938 475.824 475.113 474.715 474.538 476.038 477.508 478.405 477.168 475.412 474.356 473.832 472.931 471.253 470.188 469.01 468.813 468.709 468.257 467.925 468.469 469.495 470.636 473.202 478.152 479.849 481.279 482.853 483.801 484.247 484.6 485.188 486.016 487.44 488.618 489.614 490.299 491.03 491.596 492.376 493.283 493.564 493.699 493.737 494.23 494.863 495.068 495.257 495.878 497.018 497.796 497.812 497.659 497.896 498.596 499.141 499.236 499.542 500.06 500.893 500.827 500.554 500.876 500.979 501.037 501.574 502.654 502.891 503.146 503.525 504.234 504.948 505.871 507.291 508.186 509.141 510.628 512.222 513.238 513.81 514.033 514.215 514.408 514.613 514.837 515.094 515.384 515.72 516.098 516.513 516.949 517.372 517.928 518.686 519.036 519.427 519.627 -9999
-9999 -9999 -9999 -9999 -9999 -9999 -9999 -9999 -9999 -9999 -9999 -9999 -9999 -9999 -9999 -9999 -9999 -9999 -9999 -9999 -9999 -9999 -9999 -9999 -9999 -9999 -9999 -9999 -9999 -9999 -9999 -9999 -9999 -9999 -9999 -9999 -9999 -9999 -9999 -9999 -9999 -9999 -9999 -9999 -9999 -9999 -9999 -9999 -9999 -9999 -9999 -9999 -9999 -9999 -9999 -9999 -9999 -9999 -9999 -9999 -9999 -9999 -9999 -9999 -9999 -9999 -9999 -9999 -9999 -9999 -9999 -9999 -9999 -9999 -9999 -9999 -9999 -9999 -9999 -9999 -9999 -9999 -9999 -9999 -9999 -9999 -9999 -9999 -9999 -9999 -9999 -9999 -9999 -9999 -9999 -9999 -9999 -9999 -9999 -9999 -9999 -9999 -9999 -9999 -9999 -9999 421.418 422.018 422.292 423.031 424.247 425.04 426.47 428.416 430.051 432.216 436.09 438.964 441.012 442.174 443.331 443.738 443.115 443.526 444.502 445.302 446.27 448.491 452.186 454.609 455.764 457.093 458.755 460.55 462.08 462.99 463.614 464.079 464.469 465.406 466.522 468.002 470.127 471.613 472.284 473.931 476.535 479.032 479.484 480.663 481.459 481.976 482.418 482.859 483.117 483.264 483.124 482.481 481.351 479.657 477.33 476.715 476.402 476.237 475.936 475.575 475.017 474.236 473.717 473.511 474.081 474.31 474.484 474.261 474.18 474.429 475.472 476.751 477.294 476.091 474.401 472.971 471.131 469.623 468.65 468.471 468.455 468.274 468.113 467.875 468.109 468.478 469.172 470.527 473.553 476.779 479.035 480.805 481.812 482.689 483.156 483.654 484.53 485.645 486.863 487.891 488.897 489.752 490.597 491.247 491.868 492.683 492.94 493.21 493.571 494.072 494.499 494.665 494.641 495.031 496.089 497.101 497.254 497.222 497.536 498.265 498.538 498.614 498.907 499.166 499.444 499.571 499.523 499.698 499.961 500.268 501.042 502.02 502.15 502.364 502.707 503.158 503.781 504.978 506.831 507.771 508.555 510.4 512.696 513.72 514.027 514.085 514.184 514.325 514.501 514.698 514.918 515.154 515.413 515.707 516.054 516.394 516.681 517.356 517.977 518.509 519.029 519.322 -9999
-9999 -9999 -9999 -9999 -9999 -9999 -9999 -9999 -9999 -9999 -9999 -9999 -9999 -9999 -9999 -9999 -9999 -9999 -9999 -9999 -9999 -9999 -9999 -9999 -9999 -9999 -9999 -9999 -9999 -9999 -9999 -9999 -9999 -9999 -9999 -9999 -9999 -9999 -9999 -9999 -9999 -9999 -9999 -9999 -9999 -9999 -9999 -9999 -9999 -9999 -9999 -9999 -9999 -9999 -9999 -9999 -9999 -9999 -9999 -9999 -9999 -9999 -9999 -9999 -9999 -9999 -9999 -9999 -9999 -9999 -9999 -9999 -9999 -9999 -9999 -9999 -9999 -9999 -9999 -9999 -9999 -9999 -9999 -9999 -9999 -9999 -9999 -9999 -9999 -9999 -9999 -9999 -9999 -9999 -9999 -9999 -9999 -9999 -9999 -9999 -9999 -9999 -9999 -9999 -9999 418.387 418.774 419.644 421.208 422.799 423.937 424.723 426.225 428.415 429.881 432.075 435.377 438.071 440.307 441.681 442.603 442.906 442.237 442.705 443.712 444.799 445.89 447.355 451.001 454.689 455.649 457.498 459.705 461.501 462.46 462.85 463.216 463.678 464.106 464.938 466.348 468.066 470.294 471.441 471.926 473.277 475.715 478.685 478.996 481.278 482.071 482.179 482.375 482.707 483.022 483.358 483.161 481.943 480.229 478.465 476.492 475.828 475.141 475.02 474.659 474.283 473.904 473.347 473.14 473.143 473.698 473.81 473.606 473.621 473.732 474.116 475.12 475.93 476.302 475.073 472.959 470.171 467.925 467.595 467.39 467.65 467.934 467.849 467.802 467.827 468.245 468.517 469.479 472.938 474.661 475.251 478.215 480.218 481.348 482.045 482.32 482.591 483.628 484.932 486.233 487.063 488.23 489.329 490.147 490.825 491.375 491.903 492.088 492.268 492.816 493.438 493.912 494.05 494.06 494.348 495.359 496.464 496.643 496.789 497.384 497.832 497.788 498.051 498.295 498.325 498.518 498.732 498.831 498.974 499.307 499.625 500.105 500.893 501.11 501.452 501.877 502.537 503.299 504.645 506.049 507.444 508.371 509.97 512.448 513.859 514.093 514.117 514.147 514.211 514.315 514.448 514.609 514.794 515.008 515.271 515.606 515.942 516.116 516.664 517.17 517.864 518.287 -9999 -9999
-9999 -9999 -9999 -9999 -9999 -9999 -9999 -9999 -9999 -9999 -9999 -9999 -9999 -9999 -9999 -9999 -9999 -9999 -9999 -9999 -9999 -9999 -9999 -9999 -9999 -9999 -9999 -9999 -9999 -9999 -9999 -9999 -9999 -9999 -9999 -9999 -9999 -9999 -9999 -9999 -9999 -9999 -9999 -9999 -9999 -9999 -9999 -9999 -9999 -9999 -9999 -9999 -9999 -9999 -9999 -9999 -9999 -9999 -9999 -9999 -9999 -9999 -9999 -9999 -9999 -9999 -9999 -9999 -9999 -9999 -9999 -9999 -9999 -9999 -9999 -9999 -9999 -9999 -9999 -9999 -9999 -9999 -9999 -9999 -9999 -9999 -9999 -9999 -9999 -9999 -9999 -9999 -9999 -9999 -9999 -9999 -9999 -9999 -9999 -9999 -9999 -9999 -9999 -9999 417.949 417.74 417.798 418.48 419.99 422.088 423.472 424.5 426.025 427.831 429.658 431.909 435.183 437.444 439.642 441.134 441.71 441.562 441.273 442.015 443.057 444.283 445.498 446.56 450.191 454.445 455.362 457.539 460.172 461.465 462.07 462.337 462.546 463.069 463.805 464.817 466.534 468.156 470.152 471.354 472.146 473.28 477.95 477.867 478.429 481.389 482.364 482.36 482.33 482.562 482.801 483.255 482.975 481.335 479.147 477.611 475.796 474.768 473.823 473.163 473.123 472.978 472.851 472.804 472.936 473.347 473.781 473.442 473.091 473.132 473.333 474.004 474.702 474.974 474.781 473.219 470.691 467.019 466.36 466.328 466.285 466.82 467.22 467.402 467.529 467.745 468.61 469.71 472.589 476.726 475.551 474.876 476.937 479.616 481.126 481.461 481.477 481.636 482.516 483.765 485.504 486.365 487.787 489.036 489.452 490.155 490.725 491.195 491.177 491.234 491.82 492.582 493.137 493.299 493.568 493.924 494.718 495.748 495.805 496.151 497.013 496.984 497.175 497.33 497.432 497.383 497.786 498.238 498.378 498.521 498.792 498.989 499.159 499.371 499.826 500.323 501.017 502.12 503.016 504.137 505.471 507.164 508.126 509.062 511.608 513.83 514.224 514.137 514.062 514.028 514.033 514.083 514.184 514.337 514.553 514.831 515.17 515.522 515.72 515.941 516.113 516.647 517.189 -9999 -9999
-9999 -9999 -9999 -9999 -9999 -9999 -9999 -9999 -9999 -9999 -9999 -9999 -9999 -9999 -9999 -9999 -9999 -9999 -9999 -9999 -9999 -9999 -9999 -9999 -9999 -9999 -9999 -9999 -9999 -9999 -9999 -9999 -9999 -9999 -9999 -9999 -9999 -9999 -9999 -9999 -9999 -9999 -9999 -9999 -9999 -9999 -9999 -9999 -9999 -9999 -9999 -9999 -9999 -9999 -9999 -9999 -9999 -9999 -9999 -9999 -9999 -9999 -9999 -9999 -9999 -9999 -9999 -9999 -9999 -9999 -9999 -9999 -9999 -9999 -9999 -9999 -9999 -9999 -9999 -9999 -9999 -9999 -9999 -9999 -9999 -9999 -9999 -9999 -9999 -9999 -9999 -9999 -9999 -9999 -9999 -9999 -9999 -9999 -9999 -9999 -9999 -9999 417.681 416.659 416.986 416.878 417.331 417.939 418.662 421.092 422.99 424.506 425.97 427.319 429.318 432.105 435.331 437.193 439.078 440.342 440.541 440.233 440.67 441.75 442.784 444.061 445.233 446.077 449.476 453.357 454.94 457.581 459.983 460.99 461.456 461.622 461.655 462.471 463.592 464.666 466.194 467.637 469.595 471.206 472.333 473.135 477.114 480.579 479.352 480.528 482.029 482.108 482.086 482.084 482.346 482.857 482.487 480.574 478.01 476.353 474.874 473.707 472.839 472.481 472.518 472.484 472.405 472.336 472.608 473.288 473.537 472.983 472.594 472.59 472.905 473.661 474.216 474.188 473.448 470.914 468.171 465.218 465.029 465.423 465.581 466.256 466.534 467.023 467.327 467.898 469.289 471.564 474.76 477.134 476.519 475.207 476.343 479.2 480.625 480.495 480.413 480.656 481.614 482.72 484.28 485.481 487.362 488.457 488.716 489.379 490.13 490.541 490.371 490.207 490.798 491.806 492.353 492.602 492.801 493.342 493.975 494.466 494.588 495.007 495.777 496.078 496.313 496.407 496.509 496.481 496.921 497.596 497.812 497.972 498.194 498.371 498.517 498.652 498.91 499.548 500.839 502.274 502.63 503.366 504.653 506.435 507.506 509.114 511.935 513.699 514.14 514.019 513.813 513.66 513.576 513.566 513.635 513.81 514.121 514.577 514.932 514.993 515.43 515.778 515.008 515.367 516.208 -9999 -9999
-9999 -9999 -9999 -9999 -9999 -9999 -9999 -9999 -9999 -9999 -9999 -9999 -9999 -9999 -9999 -9999 -9999 -9999 -9999 -9999 -9999 -9999 -9999 -9999 -9999 -9999 -9999 -9999 -9999 -9999 -9999 -9999 -9999 -9999 -9999 -9999 -9999 -9999 -9999 -9999 -9999 -9999 -9999 -9999 -9999 -9999 -9999 -9999 -9999 -9999 -9999 -9999 -9999 -9999 -9999 -9999 -9999 -9999 -9999 -9999 -9999 -9999 -9999 -9999 -9999 -9999 -9999 -9999 -9999 -9999 -9999 -9999 -9999 -9999 -9999 -9999 -9999 -9999 -9999 -9999 -9999 -9999 -9999 -9999 -9999 -9999 -9999 -9999 -9999 -9999 -9999 -9999 -9999 -9999 -9999 -9999 -9999 -9999 -9999 -9999 419.392 417.785 416.129 415.338 415.99 416.062 416.784 417.58 418.294 420.275 422.713 424.477 426.083 427.186 428.846 431.875 434.844 436.893 438.622 439.325 439.735 439.748 440.345 441.546 442.659 443.978 445.111 446.011 449.183 452.379 454.741 458.165 459.81 460.394 460.758 460.865 461.151 462.35 463.504 464.192 465.779 467.186 469.079 471.011 472.129 473.03 475.692 479.997 480.51 478.771 480.726 481.51 481.693 482.336 482.827 482.621 481.884 479.69 476.777 474.812 473.986 473.128 472.331 472.089 472.215 472.27 471.993 471.991 472.352 472.978 472.95 472.396 472.176 472.112 472.36 472.83 473.516 473.584 471.715 468.528 466.505 464.755 464.514 464.906 464.989 465.803 466.254 466.929 467.515 468.28 469.863 472.467 475.202 476.715 476.722 476.043 475.993 477.556 478.357 478.886 479.307 479.757 480.819 482.196 483.289 484.062 485.332 486.595 487.542 488.538 489.274 489.551 489.367 489.318 489.835 491.046 491.577 491.717 492.052 492.62 493.259 493.568 493.743 494.26 494.742 495.046 495.327 495.642 495.69 495.658 495.93 496.372 496.699 496.963 497.238 497.524 497.705 497.805 498.258 499.641 501.194 502.071 502.001 502.378 503.555 505.557 507.138 509.233 512.215 513.628 513.896 513.701 513.342 513.067 512.922 512.899 512.995 513.259 513.749 514.714 515.224 514.178 514.305 515.006 514.334 514.375 515.301 -9999 -9999
-9999 -9999 -9999 -9999 -9999 -9999 -9999 -9999 -9999 -9999 -9999 -9999 -9999 -9999 -9999 -9999 -9999 -9999 -9999 -9999 -9999 -9999 -9999 -9999 -9999 -9999 -9999 -9999 -9999 -9999 -9999 -9999 -9999 -9999 -9999 -9999 -9999 -9999 -9999 -9999 -9999 -9999 -9999 -9999 -9999 -9999 -9999 -9999 -9999 -9999 -9999 -9999 -9999 -9999 -9999 -9999 -9999 -9999 -9999 -9999 -9999 -9999 -9999 -9999 -9999 -9999 -9999 -9999 -9999 -9999 -9999 -9999 -9999 -9999 -9999 -9999 -9999 -9999 -9999 -9999 -9999 -9999 -9999 -9999 -9999 -9999 -9999 -9999 -9999 -9999 -9999 -9999 -9999 -9999 -9999 -9999 -9999 -9999 -9999 420.132 417.161 416.059 414.57 414.303 414.921 415.459 416.22 417.041 418.051 420.326 422.727 424.593 426.195 427.167 428.613 431.468 434.023 436.239 438.108 438.801 439.282 439.533 440.043 441.239 442.49 443.929 445.019 446.227 449.241 452.293 455.118 458.14 459.155 459.766 460.256 460.458 461.318 462.368 463.249 464.116 465.612 466.666 468.785 470.881 471.88 472.401 472.847 477.137 479.876 478.74 480.098 480.38 481.103 482.463 483.276 482.331 481.083 478.673 475.767 473.82 473.362 472.643 471.978 471.917 471.78 471.844 471.7 471.749 472.128 472.653 472.441 471.967 471.7 471.588 471.822 472.168 472.767 472.58 470.795 467.183 465.543 464.821 464.612 464.456 464.828 465.944 466.959 467.336 467.697 468.288 469.674 472.031 474.29 475.628 476.145 476.015 475.707 476.273 476.696 477.606 478.798 479.483 480.599 481.852 482.697 483.184 484.103 485.447 486.306 487.263 488.018 488.241 488.446 488.649 488.873 489.587 490.067 490.582 491.303 491.965 492.496 492.803 493.147 493.7 493.792 494.022 494.587 494.898 494.761 494.654 495.135 495.516 495.671 495.876 496.164 496.323 496.678 496.852 497.831 499.746 501.169 501.126 500.992 501.406 502.345 504.926 507.034 509.118 512.345 513.336 513.122 512.907 512.534 512.237 512.094 512.163 512.462 512.918 513.499 514.158 513.117 512.726 513.235 513.499 513.61 514.211 515.434 -9999 -9999
-9999 -9999 -9999 -9999 -9999 -9999 -9999 -9999 -9999 -9999 -9999 -9999 -9999 -9999 -9999 -9999 -9999 -9999 -9999 -9999 -9999 -9999 -9999 -9999 -9999 -9999 -9999 -9999 -9999 -9999 -9999 -9999 -9999 -9999 -9999 -9999 -9999 -9999 -9999 -9999 -9999 -9999 -9999 -9999 -9999 -9999 -9999 -9999 -9999 -9999 -9999 -9999 -9999 -9999 -9999 -9999 -9999 -9999 -9999 -9999 -9999 -9999 -9999 -9999 -9999 -9999 -9999 -9999 -9999 -9999 -9999 -9999 -9999 -9999 -9999 -9999 -9999 -9999 -9999 -9999 -9999 -9999 -9999 -9999 -9999 -9999 -9999 -9999 -9999 -9999 -9999 -9999 -9999 -9999 -9999 -9999 -9999 -9999 417.887 416.413 415.362 414.12 413.394 413.76 414.133 414.902 416.292 417.035 418.278 420.629 422.344 424.356 425.955 427.072 428.334 430.817 433.372 435.403 437.326 438.254 438.837 439.17 439.732 440.807 442.074 443.432 444.774 446.149 449.04 452.457 455.46 457.949 458.497 459.05 459.609 460.191 461.575 462.428 462.881 463.627 465.25 466.13 468.637 470.534 471.659 472.405 472.698 475.846 479.156 478.87 478.818 479.024 480.062 480.763 481.215 480.75 479.409 477.467 474.906 473.253 472.734 472.314 471.957 471.726 471.518 471.567 471.397 471.376 471.742 472.179 471.892 471.186 470.867 470.899 471.156 471.467 472.026 471.237 467.574 465.489 464.738 464.257 464.056 464.154 465.125 466.528 467.715 468.065 467.914 467.979 468.678 470.318 472.002 473.554 474.911 475.363 475.384 475.923 476.509 477.427 478.351 479.199 480.477 481.51 482.163 482.552 483.128 484.061 485.035 485.926 487.012 487.119 487.381 487.786 487.631 487.586 487.902 488.552 489.554 490.713 491.372 491.903 492.707 493.154 493.013 493.187 493.628 493.597 493.23 493.088 493.921 494.606 494.855 495.14 495.387 495.471 495.705 496.183 497.217 498.985 500.799 499.533 498.531 501.13 502.762 505.092 506.9 508.128 511.504 512.508 511.795 511.556 511.339 511.146 511.061 511.335 512.054 512.846 513.59 513.816 512.136 512.167 512.264 512.671 513.2 514.129 515.289 -9999 -9999
-9999 -9999 -9999 -9999 -9999 -9999 -9999 -9999 -9999 -9999 -9999 -9999 -9999 -9999 -9999 -9999 -9999 -9999 -9999 -9999 -9999 -9999 -9999 -9999 -9999 -9999 -9999 -9999 -9999 -9999 -9999 -9999 -9999 -9999 -9999 -9999 -9999 -9999 -9999 -9999 -9999 -9999 -9999 -9999 -9999 -9999 -9999 -9999 -9999 -9999 -9999 -9999 -9999 -9999 -9999 -9999 -9999 -9999 -9999 -9999 -9999 -9999 -9999 -9999 -9999 -9999 -9999 -9999 -9999 -9999 -9999 -9999 -9999 -9999 -9999 -9999 -9999 -9999 -9999 -9999 -9999 -9999 -9999 -9999 -9999 -9999 -9999 -9999 -9999 -9999 -9999 -9999 -9999 -9999 -9999 -9999 -9999 412.52 413.789 413.854 412.09 411.769 412.164 413.042 413.517 414.572 416.717 417.148 418.319 420.255 422.048 424.038 425.716 426.749 428.054 430.655 433.071 434.866 436.706 437.704 438.333 438.73 439.31 440.247 441.48 442.702 444.358 445.887 448.697 452.357 455.366 457.383 457.761 458.512 459.148 460.312 461.485 462.078 462.611 463.179 464.785 465.774 468.326 470.056 471.334 472.261 472.654 473.903 478.483 479.397 477.594 477.34 478.708 479.557 480.313 479.898 477.127 476.482 474.243 472.865 472.326 471.82 471.591 471.407 471.388 471.323 470.993 470.997 471.367 471.516 470.94 470.267 469.957 470.22 470.424 470.861 471.074 470.358 467.774 464.937 463.925 463.574 463.581 463.986 465.222 466.682 467.696 468.018 467.956 467.961 467.346 468.183 470.781 472.488 473.896 474.782 475.251 475.854 476.8 477.385 477.955 478.804 480.089 481.21 481.716 481.936 482.393 482.996 484.103 485.062 485.98 485.931 486.076 486.548 486.388 486.459 486.808 487.275 488.036 489.146 489.912 490.914 492.238 492.45 492.262 492.255 492.371 491.953 491.442 491.471 492.352 493.345 494.029 494.257 494.409 494.729 495.239 495.89 497.076 497.06 499.491 499.432 497.949 501.475 503.558 505.586 507.245 509.474 510.742 510.842 510.382 510.215 510.141 509.952 509.724 510.098 511.27 512.601 513.47 513.307 512.234 511.832 511.498 512.174 512.961 513.778 514.446 -9999 -9999
-9999 -9999 -9999 -9999 -9999 -9999 -9999 -9999 -9999 -9999 -9999 -9999 -9999 -9999 -9999 -9999 -9999 -9999 -9999 -9999 -9999 -9999 -9999 -9999 -9999 -9999 -9999 -9999 -9999 -9999 -9999 -9999 -9999 -9999 -9999 -9999 -9999 -9999 -9999 -9999 -9999 -9999 -9999 -9999 -9999 -9999 -9999 -9999 -9999 -9999 -9999 -9999 -9999 -9999 -9999 -9999 -9999 -9999 -9999 -9999 -9999 -9999 -9999 -9999 -9999 -9999 -9999 -9999 -9999 -9999 -9999 -9999 -9999 -9999 -9999 -9999 -9999 -9999 -9999 -9999 -9999 -9999 -9999 -9999 -9999 -9999 -9999 -9999 -9999 -9999 -9999 -9999 -9999 -9999 -9999 -9999 -9999 411.177 411.676 411.235 410.326 410.104 410.738 412.205 412.533 413.867 416.146 417.275 418.047 420.246 422.025 423.711 425.483 426.459 427.739 430.172 432.913 434.563 436.288 437.154 437.775 438.322 438.883 439.731 440.966 442.093 444.038 445.525 448.224 452.202 455.235 456.697 457.043 457.478 458.457 460.464 461.309 461.828 462.332 463.173 464.784 466.561 468.846 469.808 470.952 471.634 471.719 471.853 473.663 475.958 475.527 475.439 476.861 478.049 478.227 478.143 476.062 476.615 474.11 472.786 472.214 471.679 471.318 471.161 471.124 470.959 470.541 470.42 470.773 470.64 469.825 469.257 469.266 469.509 469.541 469.582 469.956 469.493 467.846 464.704 463.335 463.085 463.092 463.608 464.907 466.406 467.312 467.723 467.892 467.936 467.19 468.208 470.685 472.507 473.185 474.215 475.099 476.07 476.648 476.361 477.155 478.354 479.569 480.565 481.095 481.286 481.545 482.036 482.853 483.909 484.526 484.737 484.87 485.066 485.405 485.748 486.149 486.603 487.099 487.68 488.619 489.852 491.593 491.617 491.366 491.537 491.19 490.731 490.604 490.622 491.163 491.824 492.793 493.309 493.297 493.709 494.524 495.61 497.542 497.609 499.68 499.779 498.189 501.7 504.058 505.747 507.516 509.651 509.696 509.417 509.34 509.274 509.203 508.645 507.547 507.913 509.624 511.376 512.231 512.149 512.021 511.772 511.507 512.175 512.782 513.359 513.776 -9999 -9999
-9999 -9999 -9999 -9999 -9999 -9999 -9999 -9999 -9999 -9999 -9999 -9999 -9999 -9999 -9999 -9999 -9999 -9999 -9999 -9999 -9999 -9999 -9999 -9999 -9999 -9999 -9999 -9999 -9999 -9999 -9999 -9999 -9999 -9999 -9999 -9999 -9999 -9999 -9999 -9999 -9999 -9999 -9999 -9999 -9999 -9999 -9999 -9999 -9999 -9999 -9999 -9999 -9999 -9999 -9999 -9999 -9999 -9999 -9999 -9999 -9999 -9999 -9999 -9999 -9999 -9999 -9999 -9999 -9999 -9999 -9999 -9999 -9999 -9999 -9999 -9999 -9999 -9999 -9999 -9999 -9999 -9999 -9999 -9999 -9999 -9999 -9999 -9999 -9999 -9999 -9999 -9999 -9999 -9999 -9999 -9999 409.613 410.016 409.717 408.914 408.879 409.212 410.102 410.638 410.209 412.991 416.236 417.335 417.712 420.012 421.563 423.631 425.229 426.131 427.215 429.633 432.752 434.238 435.877 436.652 437.272 437.92 438.504 439.369 440.482 441.705 443.648 445.057 447.716 451.982 454.508 455.885 456.196 456.289 456.839 459.653 460.97 461.582 462.243 463.286 464.504 466.477 468.593 469.34 470.238 470.884 470.612 470.754 471.276 472.724 473.574 473.531 474.509 476.191 475.79 475.662 475.617 476.176 473.362 472.573 472.126 471.61 471.148 470.895 470.818 470.682 470.061 469.668 470.041 469.848 469.212 468.689 468.682 468.732 468.537 468.665 468.808 466.274 463.462 463.216 462.883 462.648 462.689 463.189 464.557 466.123 467.026 467.458 467.799 467.795 468.082 468.752 470.45 471.724 471.985 473.8 474.941 475.808 474.728 474.728 476.039 477.943 479.847 480.031 480.522 480.868 480.893 481.278 482.01 482.469 482.868 483.699 484.196 484.538 484.899 485.258 485.673 486.095 486.239 486.432 487.401 488.516 490.01 490.376 490.45 490.655 490.038 489.645 489.408 489.604 490.015 490.689 491.48 492.045 492.244 492.865 493.69 494.921 497.231 499.024 499.336 496.914 496.978 502.627 504.624 505.883 507.341 508.759 508.878 508.864 508.733 508.688 508.575 507.583 505.324 505.722 507.992 509.761 510.773 511.224 511.538 511.767 511.986 512.316 512.635 512.914 513.22 -9999 -9999
-9999 -9999 -9999 -9999 -9999 -9999 -9999 -9999 -9999 -9999 -9999 -9999 -9999 -9999 -9999 -9999 -9999 -9999 -9999 -9999 -9999 -9999 -9999 -9999 -9999 -9999 -9999 -9999 -9999 -9999 -9999 -9999 -9999 -9999 -9999 -9999 -9999 -9999 -9999 -9999 -9999 -9999 -9999 -9999 -9999 -9999 -9999 -9999 -9999 -9999 -9999 -9999 -9999 -9999 -9999 -9999 -9999 -9999 -9999 -9999 -9999 -9999 -9999 -9999 -9999 -9999 -9999 -9999 -9999 -9999 -9999 -9999 -9999 -9999 -9999 -9999 -9999 -9999 -9999 -9999 -9999 -9999 -9999 -9999 -9999 -9999 -9999 -9999 -9999 -9999 -9999 -9999 -9999 -9999 -9999 409.598 407.667 407.411 407.776 407.709 407.549 408.111 409.007 409.503 409.656 413.885 416.32 416.866 417.472 419.406 421.367 423.542 424.91 425.822 426.695 429.246 432.455 433.792 435.379 436.057 436.6 437.288 438.103 439.078 440.1 441.305 442.956 444.256 446.354 449.991 452.358 453.858 454.609 454.925 455.348 458.133 460.296 461.263 462.07 463.367 464.021 465.779 468.01 468.713 469.071 469.258 469.309 469.458 470.127 471.082 471.57 471.915 472.648 473.529 473.152 472.485 473.392 475.316 473.36 472.4 471.896 471.414 471.04 470.595 470.613 470.569 469.886 469.107 469.11 468.722 468.207 468.043 468.312 468.804 468.645 468.657 467.758 464.115 461.975 462.375 462.367 462.374 462.437 462.876 464.311 465.889 466.775 467.169 467.216 467.318 467.743 468.313 469.881 471.463 472.27 474.01 475.413 475.92 475.699 476.08 476.883 478.429 479.804 479.894 480.434 480.555 480.193 480.254 480.754 481.08 481.643 482.731 483.644 483.877 484.316 484.707 485.09 485.392 485.561 485.645 486.244 487.329 488.407 488.93 489.105 489.232 489.018 488.653 488.081 488.386 489.163 490.096 490.709 490.985 491.309 492.048 492.869 494.371 496.28 498.121 498.437 498.131 499.799 503.364 504.857 506.161 507.146 507.889 508.185 508.294 508.275 508.311 508.262 507.376 505.109 505.787 507.716 509.164 510.058 510.635 511.091 511.496 511.84 512.132 512.328 512.346 512.532 -9999 -9999
-9999 -9999 -9999 -9999 -9999 -9999 -9999 -9999 -9999 -9999 -9999 -9999 -9999 -9999 -9999 -9999 -9999 -9999 -9999 -9999 -9999 -9999 -9999 -9999 -9999 -9999 -9999 -9999 -9999 -9999 -9999 -9999 -9999 -9999 -9999 -9999 -9999 -9999 -9999 -9999 -9999 -9999 -9999 -9999 -9999 -9999 -9999 -9999 -9999 -9999 -9999 -9999 -9999 -9999 -9999 -9999 -9999 -9999 -9999 -9999 -9999 -9999 -9999 -9999 -9999 -9999 -9999 -9999 -9999 -9999 -9999 -9999 -9999 -9999 -9999 -9999 -9999 -9999 -9999 -9999 -9999 -9999 -9999 -9999 -9999 -9999 -9999 -9999 -9999 -9999 -9999 -9999 -9999 -9999 411.604 408.648 406.231 405.851 407.005 406.986 406.754 406.957 407.676 408.537 409.553 414.408 415.965 415.529 416.724 418.799 421.32 423.746 424.464 425.387 426.453 428.551 431.799 433.446 434.89 435.44 435.779 436.564 437.587 438.622 439.629 440.76 442.094 443.289 444.938 446.705 448.085 449.443 451.655 453.551 454.197 456.639 459.487 460.959 461.684 463.055 462.691 463.661 465.803 466.831 467.307 467.431 467.078 467.128 468.541 469.732 470.039 470.741 471.623 472.322 472.214 472.324 475.792 475.835 472.988 471.864 471.431 470.95 470.609 470.169 470.126 470.064 469.474 468.653 468.003 467.804 467.425 467.419 468.199 469.653 467.929 467.721 465.248 462.185 462.314 462.027 461.991 462.101 462.2 462.804 464.142 465.659 466.499 466.252 465.401 466.222 467.286 467.735 469.003 472.382 474.205 474.559 476.059 476.286 476.409 477.058 478.05 479.163 479.54 479.281 479.537 479.557 479.357 479.474 479.826 480.345 480.84 481.611 482.618 482.827 483.382 483.957 484.307 484.645 484.914 485.101 485.453 486.261 487.061 487.129 487.551 487.984 488.038 487.752 487.48 488.086 489.286 490.067 490.108 490.076 490.995 491.672 492.761 494.088 495.609 497.308 498.275 499.105 500.897 503.362 504.896 506.02 506.909 507.352 507.568 507.802 507.941 508.09 508.191 507.958 507.342 507.581 508.439 509.263 509.803 510.32 510.72 511.095 511.43 511.72 511.885 511.792 511.907 -9999 -9999
-9999 -9999 -9999 -9999 -9999 -9999 -9999 -9999 -9999 -9999 -9999 -9999 -9999 -9999 -9999 -9999 -9999 -9999 -9999 -9999 -9999 -9999 -9999 -9999 -9999 -9999 -9999 -9999 -9999 -9999 -9999 -9999 -9999 -9999 -9999 -9999 -9999 -9999 -9999 -9999 -9999 -9999 -9999 -9999 -9999 -9999 -9999 -9999 -9999 -9999 -9999 -9999 -9999 -9999 -9999 -9999 -9999 -9999 -9999 -9999 -9999 -9999 -9999 -9999 -9999 -9999 -9999 -9999 -9999 -9999 -9999 -9999 -9999 -9999 -9999 -9999 -9999 -9999 -9999 -9999 -9999 -9999 -9999 -9999 -9999 -9999 -9999 -9999 -9999 -9999 -9999 -9999 -9999 -9999 410.898 406.978 404.961 405.273 406.806 406.443 405.864 406.002 406.728 407.563 409.556 413.763 415.543 415.015 416.555 418.561 421.078 423.45 424.005 424.761 426.016 427.863 430.679 432.925 434.499 434.818 435.028 435.553 436.479 438.046 439.278 440.34 441.396 442.554 443.945 445.017 445.857 446.704 448.103 451.042 452.603 454.765 458.248 459.895 460.513 461.171 460.84 461.262 461.746 462.79 463.053 462.844 462.832 463.701 466.111 468.063 468.464 469.364 470.539 471.597 472.327 474.073 475.055 472.838 470.871 470.585 470.144 469.609 469.505 469.512 469.731 469.631 468.971 468.124 467.406 467.102 466.515 466.456 467.256 467.868 465.05 464.853 464.384 462.67 460.982 460.264 461.452 461.811 462.177 462.891 464.007 465.239 465.88 464.509 463.227 465.272 467.36 468.585 469.246 472.423 474.088 473.929 475.145 475.603 475.862 476.579 477.742 478.529 478.542 477.615 477.563 478.379 478.559 478.749 479.003 479.757 480.241 480.442 481.259 481.793 482.488 483.055 483.442 483.871 484.276 484.654 484.807 485.274 485.359 485.459 486.557 487.211 487.243 486.873 486.986 488.08 489.149 489.664 489.088 489.031 490.646 491.551 492.605 493.975 495.439 496.967 498.312 499.592 501.174 502.97 504.402 505.491 506.442 506.859 507.193 507.441 507.691 507.966 508.257 508.404 508.359 508.525 508.942 509.343 509.733 510.123 510.428 510.691 510.958 511.227 511.392 511.407 511.449 -9999 -9999
-9999 -9999 -9999 -9999 -9999 -9999 -9999 -9999 -9999 -9999 -9999 -9999 -9999 -9999 -9999 -9999 -9999 -9999 -9999 -9999 -9999 -9999 -9999 -9999 -9999 -9999 -9999 -9999 -9999 -9999 -9999 -9999 -9999 -9999 -9999 -9999 -9999 -9999 -9999 -9999 -9999 -9999 -9999 -9999 -9999 -9999 -9999 -9999 -9999 -9999 -9999 -9999 -9999 -9999 -9999 -9999 -9999 -9999 -9999 -9999 -9999 -9999 -9999 -9999 -9999 -9999 -9999 -9999 -9999 -9999 -9999 -9999 -9999 -9999 -9999 -9999 -9999 -9999 -9999 -9999 -9999 -9999 -9999 -9999 -9999 -9999 -9999 -9999 -9999 -9999 -9999 -9999 -9999 412.375 408.917 405.007 403.811 405.333 406.535 406.105 405.288 405.355 406.01 406.937 410.287 413.226 414.298 413.74 415.728 418.116 419.789 422.587 423.629 424.238 425.4 426.948 429.499 432.333 434.018 434.173 434.123 434.358 434.917 436.411 438.623 439.821 440.748 441.891 443.223 444.163 444.68 445.193 445.862 447.498 449.415 451.763 456.109 457.846 458.741 459.044 458.716 458.349 458.421 458.901 459.965 460.55 460.834 461.85 463.372 465.498 466.463 467.077 468.235 469.817 469.741 469.405 468.813 468.551 468.564 468.422 467.953 467.615 467.644 468.286 469.254 468.63 467.839 467.415 466.403 465.526 465.2 464.913 464.366 461.186 457.577 457.42 458.659 459.472 456.387 459.654 460.907 461.749 462.383 463.156 463.955 464.514 464.248 462.995 462.362 465.309 468.163 469.94 470.408 472.301 473.323 473.609 474.592 474.935 474.931 474.923 476.297 477.22 476.471 475.736 475.832 476.762 477.367 477.881 478.388 479.367 479.779 479.987 480.523 480.948 481.715 482.38 482.794 482.863 482.962 484.051 484.078 484.76 484.639 484.885 486.005 486.438 486.389 486.52 487.105 487.854 488.73 489.09 488.061 488.703 489.996 491.203 492.448 493.839 495.315 496.789 498.21 499.576 500.814 502.018 503.588 504.902 505.74 506.443 507.052 507.258 507.509 507.951 508.586 508.919 508.668 508.801 509.18 509.261 509.595 509.99 510.179 510.273 510.43 510.659 510.819 510.861 -9999 -9999 -9999
-9999 -9999 -9999 -9999 -9999 -9999 -9999 -9999 -9999 -9999 -9999 -9999 -9999 -9999 -9999 -9999 -9999 -9999 -9999 -9999 -9999 -9999 -9999 -9999 -9999 -9999 -9999 -9999 -9999 -9999 -9999 -9999 -9999 -9999 -9999 -9999 -9999 -9999 -9999 -9999 -9999 -9999 -9999 -9999 -9999 -9999 -9999 -9999 -9999 -9999 -9999 -9999 -9999 -9999 -9999 -9999 -9999 -9999 -9999 -9999 -9999 -9999 -9999 -9999 -9999 -9999 -9999 -9999 -9999 -9999 -9999 -9999 -9999 -9999 -9999 -9999 -9999 -9999 -9999 -9999 -9999 -9999 -9999 -9999 -9999 -9999 -9999 -9999 -9999 -9999 -9999 -9999 411.574 409.67 405.641 403.862 403.464 404.983 405.973 405.763 405.031 405.035 405.721 407.041 410.104 412.509 413.186 414.021 415.818 417.627 419.617 422.325 423.057 423.825 424.788 426.144 428.544 431.802 433.61 433.735 433.365 433.32 433.961 434.76 436.306 437.907 439.956 441.275 442.718 443.474 443.727 443.869 444.628 445.695 446.706 449.763 454.987 456.495 457.439 457.802 457.378 456.76 456.806 457.679 458.354 458.561 459.037 460.149 461.397 462.656 464.13 465.049 465.634 466.206 465.941 465.789 466.077 466.656 466.882 466.635 466.324 465.951 465.636 466.253 467.214 466.882 466.15 465.733 464.634 463.2 462.52 460.997 457.709 455.225 453.91 452.712 451.225 450.937 452.822 457.66 461.239 461.955 463.002 463.933 464.304 464.207 463.345 461.841 461.69 463.101 466.844 469.532 470.986 472.249 472.027 472.509 474.173 474.631 474.731 475.098 476.397 478.105 477.488 474.636 474.502 475.247 476.088 476.895 477.839 479.126 479.439 479.778 480.093 480.394 481.04 481.804 482.007 481.802 481.853 482.849 482.974 483.587 483.429 484.327 485.339 485.588 485.703 486.303 486.997 487.386 488.147 488.117 487.447 488.345 489.501 490.793 492.159 493.63 495.158 496.525 497.783 499.105 499.79 500.808 502.939 504.268 504.929 505.688 506.417 506.819 507.416 507.818 508.434 508.341 507.892 507.953 508.286 508.759 509.548 510.025 509.867 509.738 509.786 509.995 510.151 510.171 -9999 -9999 -9999
-9999 -9999 -9999 -9999 -9999 -9999 -9999 -9999 -9999 -9999 -9999 -9999 -9999 -9999 -9999 -9999 -9999 -9999 -9999 -9999 -9999 -9999 -9999 -9999 -9999 -9999 -9999 -9999 -9999 -9999 -9999 -9999 -9999 -9999 -9999 -9999 -9999 -9999 -9999 -9999 -9999 -9999 -9999 -9999 -9999 -9999 -9999 -9999 -9999 -9999 -9999 -9999 -9999 -9999 -9999 -9999 -9999 -9999 -9999 -9999 -9999 -9999 -9999 -9999 -9999 -9999 -9999 -9999 -9999 -9999 -9999 -9999 -9999 -9999 -9999 -9999 -9999 -9999 -9999 -9999 -9999 -9999 -9999 -9999 -9999 -9999 -9999 -9999 -9999 -9999 -9999 410.187 408.08 404.238 403.486 403.333 403.012 404.298 405.541 405.437 404.976 404.952 405.596 407.643 410.719 412.493 412.682 412.766 414.932 417.169 418.57 420.401 422.109 423.432 424.361 425.397 427.386 430.892 432.927 433.096 432.766 432.561 433.097 433.646 434.585 435.517 438.115 440.409 442.018 442.721 442.674 442.684 443.537 444.791 445.837 447.987 453.785 455.528 456.425 456.856 456.406 455.534 455.386 455.997 456.374 456.845 457.726 458.683 459.645 460.633 461.673 462.629 462.415 462.006 462.57 463.8 464.634 464.969 464.95 464.634 464.331 463.674 463.231 463.857 464.863 464.973 464.431 463.85 462.108 460.914 459.581 457.295 455.181 453.749 452.311 450.602 449.352 449.144 456.48 460.304 461.477 462.183 463.883 465.467 465.173 464.281 463.164 461.692 461.509 462.34 465.977 469.111 470.623 471.227 470.341 472.051 473.665 474.542 475.149 475.862 477.088 478.383 478.113 474.039 473.687 474.21 474.987 475.89 477.091 478.451 478.996 479.328 479.438 479.793 480.149 480.67 481.107 480.967 481.293 481.818 482.131 482.408 482.624 483.833 484.756 484.957 485.363 486.063 486.586 486.785 487.501 487.216 487.241 488.067 489.107 490.365 491.782 493.324 494.916 496.259 497.269 498.218 498.723 500.051 502.232 503.538 503.968 504.706 505.601 506.127 506.794 507.195 507.546 507.213 506.825 506.719 507.119 507.942 509.155 509.945 509.397 509.036 508.992 509.214 509.37 509.328 -9999 -9999 -9999
-9999 -9999 -9999 -9999 -9999 -9999 -9999 -9999 -9999 -9999 -9999 -9999 -9999 -9999 -9999 -9999 -9999 -9999 -9999 -9999 -9999 -9999 -9999 -9999 -9999 -9999 -9999 -9999 -9999 -9999 -9999 -9999 -9999 -9999 -9999 -9999 -9999 -9999 -9999 -9999 -9999 -9999 -9999 -9999 -9999 -9999 -9999 -9999 -9999 -9999 -9999 -9999 -9999 -9999 -9999 -9999 -9999 -9999 -9999 -9999 -9999 -9999 -9999 -9999 -9999 -9999 -9999 -9999 -9999 -9999 -9999 -9999 -9999 -9999 -9999 -9999 -9999 -9999 -9999 -9999 -9999 -9999 -9999 -9999 -9999 -9999 -9999 -9999 -9999 -9999 -9999 408.843 406.056 403.311 403.296 403.093 402.458 403.287 404.725 405.108 405.035 405.221 406.238 408.877 411.879 412.984 413.319 413.462 414.221 416.399 418.256 419.823 421.706 422.978 423.852 424.737 426.394 428.994 431.714 432.099 432.081 431.881 432.243 432.768 433.522 434.39 435.78 438.414 440.934 441.753 441.594 441.645 442.454 443.589 445.142 446.485 450.525 453.581 454.844 455.315 455.206 454.334 453.876 454.147 454.672 455.396 456.351 457.131 457.693 458.311 458.977 458.86 458.549 459.126 460.742 462.526 463.376 463.416 462.982 462.511 462.47 461.937 461.393 461.234 462.172 463.052 462.648 461.672 460.456 459.478 458.106 456.229 454.138 452.748 451.008 449.205 448.019 447.597 454.583 460.058 461.01 461.853 463.805 465.351 465.212 464.291 463.289 462.249 461.962 462.378 465.07 467.883 469.843 471.031 471.334 472.463 473.457 474.502 475.588 476.273 477.105 477.801 476.704 473.324 472.998 473.487 474.278 475.245 476.885 477.956 478.489 478.635 478.585 479.005 479.479 479.947 480.232 480.276 480.755 481.201 481.702 481.853 482.429 483.443 484.029 484.44 485.043 485.713 486.057 486.423 487.048 487.529 487.384 487.693 488.614 489.854 491.294 492.805 494.323 495.991 496.888 497.202 497.739 498.932 501.019 501.923 502.801 503.799 504.674 504.98 505.321 505.706 505.927 505.859 505.844 505.869 506.325 507.217 508.454 509.191 508.809 508.369 508.215 508.472 508.615 508.437 -9999 -9999 -9999
-9999 -9999 -9999 -9999 -9999 -9999 -9999 -9999 -9999 -9999 -9999 -9999 -9999 -9999 -9999 -9999 -9999 -9999 -9999 -9999 -9999 -9999 -9999 -9999 -9999 -9999 -9999 -9999 -9999 -9999 -9999 -9999 -9999 -9999 -9999 -9999 -9999 -9999 -9999 -9999 -9999 -9999 -9999 -9999 -9999 -9999 -9999 -9999 -9999 -9999 -9999 -9999 -9999 -9999 -9999 -9999 -9999 -9999 -9999 -9999 -9999 -9999 -9999 -9999 -9999 -9999 -9999 -9999 -9999 -9999 -9999 -9999 -9999 -9999 -9999 -9999 -9999 -9999 -9999 -9999 -9999 -9999 -9999 -9999 -9999 -9999 -9999 -9999 -9999 -9999 408.603 407.515 404.906 403.279 402.987 402.418 401.4 402.159 403.72 404.71 405.213 406.381 408.254 410.417 412.108 413.244 413.798 413.98 414.492 416.405 418.5 419.818 421.349 422.499 423.205 424.043 425.596 427.215 429.264 430.551 430.779 430.705 431.26 431.866 432.63 433.497 434.512 435.925 438.211 439.649 440.053 440.345 441.533 442.826 444.301 445.569 446.647 449.374 452.282 452.897 453.021 452.484 452.384 452.834 453.268 453.737 454.043 454.865 455.25 454.867 454.996 455.305 456.017 457.508 459.561 461.399 462.224 462.091 460.903 459.72 460.127 459.933 459.501 459.589 460.427 461.286 461.04 460.182 459.295 458.298 456.986 455.331 452.807 451.748 450.084 448.12 447.053 447.609 452.482 458.173 459.53 460.7 462.721 464.771 464.976 464.342 463.44 462.646 462.099 462.639 464.839 466.683 468.281 470.683 472.525 473.287 473.525 474.18 475.523 476.292 476.012 475.13 473.408 472.173 472.337 473.026 473.984 475.131 476.84 477.656 477.952 477.887 477.718 478.066 478.617 478.866 479.355 479.61 479.891 480.754 481.053 481.375 482.273 482.966 483.462 484.148 485.068 485.305 485.493 486.139 486.982 487.498 486.432 486.318 487.85 489.24 490.666 492.023 493.209 494.653 495.572 495.728 496.632 497.82 498.954 500.102 502.016 502.919 503.462 503.879 504.2 504.196 504.086 504.233 504.59 504.797 505.204 506.147 507.463 508.664 508.437 507.883 507.695 507.914 507.93 507.524 -9999 -9999 -9999
-9999 -9999 -9999 -9999 -9999 -9999 -9999 -9999 -9999 -9999 -9999 -9999 -9999 -9999 -9999 -9999 -9999 -9999 -9999 -9999 -9999 -9999 -9999 -9999 -9999 -9999 -9999 -9999 -9999 -9999 -9999 -9999 -9999 -9999 -9999 -9999 -9999 -9999 -9999 -9999 -9999 -9999 -9999 -9999 -9999 -9999 -9999 -9999 -9999 -9999 -9999 -9999 -9999 -9999 -9999 -9999 -9999 -9999 -9999 -9999 -9999 -9999 -9999 -9999 -9999 -9999 -9999 -9999 -9999 -9999 -9999 -9999 -9999 -9999 -9999 -9999 -9999 -9999 -9999 -9999 -9999 -9999 -9999 -9999 -9999 -9999 -9999 -9999 -9999 406.122 407.218 405.665 404.052 403 402.515 401.111 399.834 401.458 403.125 404.464 405.389 407.089 409.162 410.382 411.829 413.528 413.319 413.704 414.471 416.53 418.586 419.551 420.683 422.052 422.551 423.434 424.858 426.159 427.532 428.742 429.103 429.356 430.054 430.854 431.656 432.57 433.627 434.453 435.914 437.522 438.424 439.306 440.732 442.298 443.559 444.758 445.509 446.731 449.247 450.138 450.178 450.51 451.242 451.821 451.746 451.336 450.793 451.261 451.882 452.054 452.118 452.851 454.325 456.25 458.293 460.06 460.445 459.99 458.323 457.338 457.623 457.765 457.756 458.154 459.161 459.874 459.56 458.842 458.148 457.3 456.099 454.297 452.224 451.137 449.379 447.423 447.532 450.65 453.551 456.587 458.015 459.509 461.115 462.683 464.185 463.785 463.305 462.933 462.757 463.312 465.327 466.764 468.162 470.352 472.61 474.096 473.653 473.841 475.139 475.998 475.241 472.684 471.227 470.816 471.322 472.709 473.815 475.082 476.688 477.115 477.083 477.16 477.038 477.013 477.169 477.809 478.743 478.778 478.855 480.12 480.403 480.519 481.748 482.467 482.877 483.484 484.311 484.273 484.453 485.495 486.411 486.444 485.916 486.573 487.524 488.573 489.891 491.047 491.912 492.761 493.484 494.391 495.81 497.002 497.863 499.603 501.559 502.111 502.197 502.333 502.159 502.377 502.341 502.346 503.005 503.155 503.455 504.615 506.429 507.948 508.026 507.207 506.839 506.907 506.738 506.14 -9999 -9999 -9999
-9999 -9999 -9999 -9999 -9999 -9999 -9999 -9999 -9999 -9999 -9999 -9999 -9999 -9999 -9999 -9999 -9999 -9999 -9999 -9999 -9999 -9999 -9999 -9999 -9999 -9999 -9999 -9999 -9999 -9999 -9999 -9999 -9999 -9999 -9999 -9999 -9999 -9999 -9999 -9999 -9999 -9999 -9999 -9999 -9999 -9999 -9999 -9999 -9999 -9999 -9999 -9999 -9999 -9999 -9999 -9999 -9999 -9999 -9999 -9999 -9999 -9999 -9999 -9999 -9999 -9999 -9999 -9999 -9999 -9999 -9999 -9999 -9999 -9999 -9999 -9999 -9999 -9999 -9999 -9999 -9999 -9999 -9999 -9999 -9999 -9999 -9999 -9999 400.202 401.931 403.434 403.647 403.338 402.659 402.081 400.06 398.521 400.292 402.137 403.988 405.303 407.221 408.834 410.165 411.966 413.67 412.972 413.159 413.968 416.082 417.818 418.864 419.987 421.323 421.927 422.813 424.056 425.289 426.423 427.326 427.834 428.394 429.051 429.833 430.65 431.594 432.881 433.643 434.669 436.316 437.27 438.564 439.948 441.7 442.997 444.153 445.051 445.739 447.422 448.202 448.787 449.415 450.253 450.724 450.271 449.22 448.825 448.664 448.91 449.398 449.739 450.973 453.135 455.097 456.633 457.597 457.993 457.529 456.277 455.827 455.783 456.005 456.283 456.81 457.623 458.344 458.115 457.54 456.767 456.079 454.155 452.218 451.264 450.325 448.903 447.337 447.282 451.644 453.933 455.722 457.287 458.932 460.898 461.589 462.026 462.476 462.746 462.407 462.539 463.796 465.329 466.802 467.989 470.061 472.163 473.591 473.47 473.355 474.634 475.44 474.102 471.515 470.542 469.916 470.637 472.276 473.563 474.656 475.531 475.965 476.019 476.232 476.16 476.288 476.516 477.371 478.196 477.921 477.827 479.361 479.218 479.375 480.738 481.767 481.72 482.273 483.14 483.22 483.744 484.991 485.568 485.952 486.178 486.793 487.141 487.918 488.966 489.741 490.544 491.532 492.201 493.627 495.385 496.095 496.83 498.429 500.267 501.221 501.086 500.636 499.748 499.928 500.06 500.371 501.147 501.209 501.153 502.282 504.562 506.419 506.526 505.639 505.149 504.736 503.998 503.287 -9999 -9999 -9999
-9999 -9999 -9999 -9999 -9999 -9999 -9999 -9999 -9999 -9999 -9999 -9999 -9999 -9999 -9999 -9999 -9999 -9999 -9999 -9999 -9999 -9999 -9999 -9999 -9999 -9999 -9999 -9999 -9999 -9999 -9999 -9999 -9999 -9999 -9999 -9999 -9999 -9999 -9999 -9999 -9999 -9999 -9999 -9999 -9999 -9999 -9999 -9999 -9999 -9999 -9999 -9999 -9999 -9999 -9999 -9999 -9999 -9999 -9999 -9999 -9999 -9999 -9999 -9999 -9999 -9999 -9999 -9999 -9999 -9999 -9999 -9999 -9999 -9999 -9999 -9999 -9999 -9999 -9999 -9999 -9999 -9999 -9999 -9999 -9999 -9999 -9999 398.348 398.377 398.765 400.533 402.128 402.466 401.938 401.138 398.597 397.429 399.111 401.405 403.635 405.194 406.948 408.483 409.844 411.547 413.166 413.108 413.312 413.779 416.008 417.368 418.214 419.348 420.781 421.476 422.092 423.255 424.428 425.486 426.239 426.812 427.362 427.95 428.784 429.64 430.382 431.865 433.03 433.51 434.938 436.377 438.005 439.352 441.036 442.587 443.503 444.347 444.625 445.849 447.183 448.102 448.673 449.05 449.124 447.971 447.136 447.071 446.595 446.584 446.91 447.43 449.123 451.738 453.619 454.742 455.043 455.49 455.295 454.638 454.631 454.374 454.621 454.953 455.374 455.893 456.419 456.334 456.115 455.566 454.865 452.33 450.51 450.04 449.616 448.122 446.849 446.836 449.734 453.158 455.326 457.139 460.132 462.747 462.948 462.257 462.46 462.294 461.823 461.501 463.801 465.31 466.548 468.066 469.858 471.91 472.941 473.513 473.652 474.303 474.648 472.728 470.44 469.831 469.388 470.51 471.875 472.847 474.171 474.3 474.539 474.964 475.45 475.44 475.985 476.544 477.083 477.321 477.393 478.089 479.286 478.067 478.547 479.732 480.763 480.86 481.317 482.112 482.507 483.177 484.58 485.029 485.646 485.866 486.202 486.745 487.348 487.979 488.606 489.651 490.992 491.888 493.433 494.442 494.651 495.503 496.96 498.35 499.165 498.486 498.073 497.715 497.868 498.47 499.307 499.697 499.538 498.835 498.859 501.661 504.015 503.892 503.332 502.914 501.806 500.345 499.799 -9999 -9999 -9999
-9999 -9999 -9999 -9999 -9999 -9999 -9999 -9999 -9999 -9999 -9999 -9999 -9999 -9999 -9999 -9999 -9999 -9999 -9999 -9999 -9999 -9999 -9999 -9999 -9999 -9999 -9999 -9999 -9999 -9999 -9999 -9999 -9999 -9999 -9999 -9999 -9999 -9999 -9999 -9999 -9999 -9999 -9999 -9999 -9999 -9999 -9999 -9999 -9999 -9999 -9999 -9999 -9999 -9999 -9999 -9999 -9999 -9999 -9999 -9999 -9999 -9999 -9999 -9999 -9999 -9999 -9999 -9999 -9999 -9999 -9999 -9999 -9999 -9999 -9999 -9999 -9999 -9999 -9999 -9999 -9999 -9999 -9999 -9999 -9999 -9999 -9999 397.022 396.942 397.367 398.875 400.619 401.131 400.622 399.196 397.072 396.633 397.796 400.473 402.722 404.679 406.47 407.997 409.314 410.724 412.302 413.111 414.311 416.044 416.229 416.73 417.665 419.01 420.11 420.852 421.241 421.947 423.365 424.633 425.438 425.924 426.36 426.965 427.922 428.797 429.335 430.355 431.659 432.44 433.222 435.096 437.276 438.558 439.922 441.87 442.769 443.645 443.71 444.557 446.203 447.436 447.807 447.527 447.109 445.994 445.434 445.191 444.773 444.563 444.641 445.316 447.088 450.08 451.909 452.582 452.762 453.192 453.117 453.036 453.214 453.125 453.435 453.609 453.703 454.105 454.331 453.934 454.087 454.453 453.777 451.846 449.864 449.062 448.602 447.093 446.131 446.272 446.894 451.428 455.157 457.398 459.463 462.125 462.988 462.39 462.187 461.633 460.733 461.902 464.08 465.292 466.4 467.243 468.925 471.369 472.609 473.201 473.557 473.756 473.125 470.714 469.209 469.038 469.126 470.519 471.173 471.931 472.668 473.155 473.768 474.442 475.004 475.309 475.809 476.387 476.52 476.612 477.428 478.407 478.928 477.507 478.008 478.868 479.605 480.108 480.277 481.01 482.039 482.833 484.274 485.39 485.552 485.783 485.992 486.519 487.02 487.367 488.232 489.522 490.564 491.588 493.041 493.16 493.147 494.464 495.517 495.567 495.414 495.856 496.102 495.956 496.097 496.57 497.888 498.326 497.496 497.006 497.033 497.986 500.129 501.321 501.753 501.71 499.903 498.781 498.722 -9999 -9999 -9999
-9999 -9999 -9999 -9999 -9999 -9999 -9999 -9999 -9999 -9999 -9999 -9999 -9999 -9999 -9999 -9999 -9999 -9999 -9999 -9999 -9999 -9999 -9999 -9999 -9999 -9999 -9999 -9999 -9999 -9999 -9999 -9999 -9999 -9999 -9999 -9999 -9999 -9999 -9999 -9999 -9999 -9999 -9999 -9999 -9999 -9999 -9999 -9999 -9999 -9999 -9999 -9999 -9999 -9999 -9999 -9999 -9999 -9999 -9999 -9999 -9999 -9999 -9999 -9999 -9999 -9999 -9999 -9999 -9999 -9999 -9999 -9999 -9999 -9999 -9999 -9999 -9999 -9999 -9999 -9999 -9999 -9999 -9999 -9999 -9999 -9999 395.947 395.876 395.992 396.312 397.108 398.172 398.18 397.371 396.614 395.621 395.512 396.988 399.623 401.738 403.987 406.006 407.477 408.644 410.192 411.572 412.695 414.053 415.614 415.813 415.943 417.058 418.773 419.375 420.056 420.341 420.421 421.744 423.662 424.652 424.946 425.237 425.842 426.998 427.987 428.528 429.291 430.411 431.246 432.003 433.401 435.77 437.539 438.875 440.151 441.019 442.067 442.617 443.928 445.558 446.912 447.174 446.393 445.385 444.325 443.629 443.205 442.871 442.293 442.443 443.693 445.559 448.046 449.874 450.521 450.445 450.521 450.674 451.114 451.424 451.689 452.208 452.216 451.91 451.982 451.872 451.152 451.034 451.46 451.768 451.158 449.604 448.496 447.739 446.476 445.565 445.405 446.841 451.05 455.17 457.342 458.537 460.562 462.345 461.866 461.619 461.05 460.019 462.446 464.056 465.069 466.135 467.244 468.822 470.941 472.134 472.621 472.789 472.29 471.074 469.455 467.994 468.183 468.465 469.786 470.127 470.844 471.402 472.034 472.799 473.401 474.005 474.703 475.418 476.309 476.379 476.129 476.875 477.206 479.004 477.75 477.691 478.396 479.036 479.541 479.872 480.68 481.607 482.276 483.365 484.746 485.462 485.866 486.01 486.192 486.775 487.475 488.427 489.067 489.83 490.689 491.244 491.309 491.762 493.659 494.228 493.26 493.12 494.032 494.804 494.707 494.741 494.957 495.504 495.823 495.557 495.866 496.461 497.392 498.208 498.645 499.514 500.851 500.174 499.226 499.121 -9999 -9999 -9999
-9999 -9999 -9999 -9999 -9999 -9999 -9999 -9999 -9999 -9999 -9999 -9999 -9999 -9999 -9999 -9999 -9999 -9999 -9999 -9999 -9999 -9999 -9999 -9999 -9999 -9999 -9999 -9999 -9999 -9999 -9999 -9999 -9999 -9999 -9999 -9999 -9999 -9999 -9999 -9999 -9999 -9999 -9999 -9999 -9999 -9999 -9999 -9999 -9999 -9999 -9999 -9999 -9999 -9999 -9999 -9999 -9999 -9999 -9999 -9999 -9999 -9999 -9999 -9999 -9999 -9999 -9999 -9999 -9999 -9999 -9999 -9999 -9999 -9999 -9999 -9999 -9999 -9999 -9999 -9999 -9999 -9999 -9999 -9999 -9999 394.373 394.892 394.986 395.186 395.603 395.626 395.524 395.882 395.199 394.999 394.23 394.427 396.22 398.798 401.005 403.235 405.308 406.855 408.126 409.658 411.125 412.02 413.166 414.483 414.997 415.348 416.514 418.352 418.473 419.187 419.557 419.459 420.087 422.674 423.987 424.298 424.301 424.818 426.076 427.149 427.828 428.469 429.623 430.689 431.449 432.136 433.638 435.229 436.58 437.915 438.786 440.186 441.198 442.955 444.979 446.289 446.274 445.264 443.632 442.482 441.814 441.32 440.965 440.223 440.591 442.279 444.211 446.311 447.814 448.247 448.191 448.231 448.707 449.326 449.66 450.413 450.983 450.769 450.122 449.874 449.598 449.121 448.552 448.113 449.754 450.308 449.174 448.016 447.045 445.933 445.003 444.767 446.048 450.626 454.477 456.938 459.259 460.451 461.617 461.312 460.886 460.242 459.7 462.073 463.689 464.79 466.065 467.697 469.357 470.936 471.75 472.02 471.825 470.637 468.8 467.271 467.065 467.717 468.084 468.571 469.345 469.895 470.571 471.465 472.089 472.381 472.926 473.997 475.151 475.801 475.812 475.704 477.674 477.465 478.632 478.372 477.502 477.988 478.553 479.099 479.528 480.113 480.624 481.45 482.936 484.341 485.288 485.833 485.911 486.052 486.621 487.426 488.163 488.374 488.959 489.548 489.851 489.954 490.45 491.07 491.145 490.928 491.459 492.907 493.801 493.849 494.002 494.33 494.681 494.791 494.968 495.492 496.188 497.086 497.447 497.654 497.835 498.139 499.59 500.759 501.163 -9999 -9999 -9999
-9999 -9999 -9999 -9999 -9999 -9999 -9999 -9999 -9999 -9999 -9999 -9999 -9999 -9999 -9999 -9999 -9999 -9999 -9999 -9999 -9999 -9999 -9999 -9999 -9999 -9999 -9999 -9999 -9999 -9999 -9999 -9999 -9999 -9999 -9999 -9999 -9999 -9999 -9999 -9999 -9999 -9999 -9999 -9999 -9999 -9999 -9999 -9999 -9999 -9999 -9999 -9999 -9999 -9999 -9999 -9999 -9999 -9999 -9999 -9999 -9999 -9999 -9999 -9999 -9999 -9999 -9999 -9999 -9999 -9999 -9999 -9999 -9999 -9999 -9999 -9999 -9999 -9999 -9999 -9999 -9999 -9999 -9999 -9999 -9999 393.455 393.891 394.282 394.437 394.48 394.285 394.137 394.526 394.387 394.026 393.358 393.494 395.237 397.701 400.758 402.479 404.406 405.903 407.576 409.008 410.375 411.254 412.486 413.521 414.093 414.663 415.684 416.933 417.6 418.291 418.788 418.757 419.416 422.051 423.419 423.661 423.575 423.939 425.04 426.293 427.029 427.503 428.605 430.192 431.178 431.65 432.419 433.793 434.717 435.446 436.451 438.22 439.757 441.62 444.112 444.963 444.627 443.415 441.533 440.751 439.965 439.244 438.781 438.176 438.701 440.802 442.935 444.783 445.675 445.993 446.118 446.446 447.006 447.507 448.261 449.317 449.895 449.586 448.565 447.627 447.051 447.163 446.868 446.081 447.456 449.171 448.573 447.369 446.429 445.306 444.573 444.615 446.61 450.142 453.277 456.07 459.412 460.672 460.757 460.243 459.68 459.127 459.698 461.331 463.508 464.712 466.212 468.283 469.835 471.107 471.596 471.359 471.186 470.229 467.102 465.754 466.447 467.076 467.515 467.956 468.825 469.399 470.178 471.124 471.641 472.118 472.603 473.626 474.874 475.096 474.704 474.758 477.32 477.4 477.527 477.621 477.009 477.593 478.125 478.688 479.043 479.383 479.753 480.769 482.488 484.069 484.921 485.387 485.732 486.122 486.615 487.144 487.574 487.81 488.035 488.505 488.745 488.727 488.996 489.188 489.21 489.543 490.633 492.133 492.605 492.613 493.105 493.644 494.036 494.035 494.32 495.021 495.531 496.169 496.514 496.379 495.99 496.013 496.373 496.917 497.662 -9999 -9999 -9999
-9999 -9999 -9999 -9999 -9999 -9999 -9999 -9999 -9999 -9999 -9999 -9999 -9999 -9999 -9999 -9999 -9999 -9999 -9999 -9999 -9999 -9999 -9999 -9999 -9999 -9999 -9999 -9999 -9999 -9999 -9999 -9999 -9999 -9999 -9999 -9999 -9999 -9999 -9999 -9999 -9999 -9999 -9999 -9999 -9999 -9999 -9999 -9999 -9999 -9999 -9999 -9999 -9999 -9999 -9999 -9999 -9999 -9999 -9999 -9999 -9999 -9999 -9999 -9999 -9999 -9999 -9999 -9999 -9999 -9999 -9999 -9999 -9999 -9999 -9999 -9999 -9999 -9999 -9999 -9999 -9999 -9999 -9999 -9999 392.488 392.652 392.331 393.196 393.642 393.473 393.393 393.442 393.718 393.92 393.489 392.862 392.895 394.425 396.816 400.327 401.963 403.479 404.982 406.819 408.362 409.577 410.79 412.128 413.116 413.335 414.107 414.975 415.701 416.699 417.532 417.788 418.039 418.889 421.47 422.985 423.003 422.755 422.904 423.88 425.223 426.088 426.385 427.18 429.296 430.697 431.15 431.484 432.732 433.846 434.513 435.156 436.308 437.962 439.426 441.344 442.402 441.96 440.628 439.376 438.673 437.867 437.031 436.551 435.97 436.433 439.188 441.273 442.761 443.36 444.063 444.366 444.738 445.345 445.795 446.822 448.081 448.483 447.964 447.033 445.982 445.293 445.738 445.559 444.979 445.803 447.579 447.529 446.528 445.81 444.649 444.222 444.794 446.424 448.27 450.77 454.279 457.302 458.827 459.253 459.058 458.777 458.77 459.567 461.024 463.075 464.398 466.225 468.555 469.913 470.741 470.896 470.54 470.065 468.37 465.295 464.741 465.645 466.321 466.865 467.476 468.446 468.909 469.896 470.778 471.219 471.767 472.243 473.211 474.097 473.992 472.96 473.762 477.279 478.608 478.232 477.222 476.482 477.044 477.793 478.276 478.53 478.928 479.469 480.544 482.504 484.183 484.689 485.06 485.524 486.063 486.628 486.971 487.226 487.242 487.187 487.172 487.242 487.443 487.562 487.848 488.097 488.505 489.964 491.368 491.413 491.411 491.924 492.608 492.792 493.065 493.506 493.939 494.178 494.39 494.777 494.509 494.406 494.761 495.005 495.095 495.558 -9999 -9999 -9999
-9999 -9999 -9999 -9999 -9999 -9999 -9999 -9999 -9999 -9999 -9999 -9999 -9999 -9999 -9999 -9999 -9999 -9999 -9999 -9999 -9999 -9999 -9999 -9999 -9999 -9999 -9999 -9999 -9999 -9999 -9999 -9999 -9999 -9999 -9999 -9999 -9999 -9999 -9999 -9999 -9999 -9999 -9999 -9999 -9999 -9999 -9999 -9999 -9999 -9999 -9999 -9999 -9999 -9999 -9999 -9999 -9999 -9999 -9999 -9999 -9999 -9999 -9999 -9999 -9999 -9999 -9999 -9999 -9999 -9999 -9999 -9999 -9999 -9999 -9999 -9999 -9999 -9999 -9999 -9999 -9999 -9999 -9999 392.156 392.162 392.115 391.375 391.866 392.837 392.804 392.844 392.991 393.386 393.443 392.875 392.504 392.657 393.558 395.656 398.894 401.221 402.565 404.325 406.033 407.455 408.728 410.148 411.565 412.648 412.996 413.933 414.482 414.805 415.683 416.639 416.865 417.266 418.445 421.248 422.657 422.297 421.806 421.814 422.623 423.912 425.087 425.369 425.782 428.139 429.795 430.33 430.61 431.748 433.126 433.537 433.722 434.554 435.803 437.117 438.06 439.003 439.24 438.529 437.725 436.463 435.198 434.659 434.202 433.572 434.082 436.574 438.689 440.248 440.929 441.92 442.171 442.356 443.45 444.492 445.483 446.654 446.92 445.928 445.189 444.394 443.584 444.049 444.168 443.96 444.888 446.56 446.548 445.974 445.362 444.26 443.98 444.254 444.669 446.255 449.901 453.573 455.938 457.067 457.71 457.789 457.939 458.466 459.91 461.254 462.315 463.863 466.203 468.528 469.853 469.908 469.598 468.953 467.989 466.216 464.403 464.143 464.729 465.507 466.308 467.203 468.051 468.6 469.669 470.329 470.67 471.278 471.924 472.977 473.37 473.508 472.832 474.268 477.568 479.181 479.109 477.242 475.854 476.489 477.41 477.778 478.076 478.628 479.46 480.687 482.702 484.096 484.526 484.911 485.31 485.879 486.471 486.904 486.958 486.626 486.181 485.842 485.991 486.244 486.388 486.626 486.914 487.474 488.587 489.962 490.328 490.574 491.203 491.574 491.652 492.012 492.4 492.602 492.805 492.916 493.05 493.345 493.516 493.897 494.044 494.136 494.336 -9999 -9999 -9999
-9999 -9999 -9999 -9999 -9999 -9999 -9999 -9999 -9999 -9999 -9999 -9999 -9999 -9999 -9999 -9999 -9999 -9999 -9999 -9999 -9999 -9999 -9999 -9999 -9999 -9999 -9999 -9999 -9999 -9999 -9999 -9999 -9999 -9999 -9999 -9999 -9999 -9999 -9999 -9999 -9999 -9999 -9999 -9999 -9999 -9999 -9999 -9999 -9999 -9999 -9999 -9999 -9999 -9999 -9999 -9999 -9999 -9999 -9999 -9999 -9999 -9999 -9999 -9999 -9999 -9999 -9999 -9999 -9999 -9999 -9999 -9999 -9999 -9999 -9999 -9999 -9999 -9999 -9999 -9999 -9999 -9999 392.769 392.282 392.101 391.935 391.433 391.513 392.146 392.282 392.398 392.597 393.143 393.083 392.458 392.144 392.313 393.107 394.855 398.843 400.619 401.751 403.978 405.414 406.532 407.81 409.107 410.319 411.747 412.848 413.571 413.791 413.889 414.59 415.505 415.775 415.986 417.477 420.968 422.229 421.552 420.992 420.903 421.345 422.388 423.567 424.267 424.98 426.457 427.953 428.838 429.434 430.655 432.033 432.053 432.186 433.138 434.376 435.53 436.461 437.173 437.219 436.369 435.536 433.887 433.047 432.833 432.506 431.718 431.823 432.998 434.719 436.43 437.797 439.05 439.429 439.614 441.204 443.058 443.924 444.856 444.508 443.159 443.151 442.627 441.694 441.901 442.56 442.287 443.74 445.705 445.852 445.828 445.184 443.916 443.794 444.087 443.98 445.69 449.938 453.548 455.003 455.632 456.441 456.818 457.24 458.123 460.073 461.483 462.142 463.597 466.302 468.683 469.692 469.249 468.414 467.191 465.899 464.648 463.531 463.171 463.226 464.528 465.635 466.887 467.643 468.136 468.841 469.655 470.313 470.946 471.83 472.829 472.59 473.391 475.398 477.766 478.787 479.736 480.216 477.815 475.622 476.527 476.849 477.222 477.747 478.382 479.362 480.708 482.497 483.769 484.354 484.662 484.977 485.431 485.918 486.356 486.079 485.424 485.118 484.66 484.667 485.007 485.107 485.277 485.545 486.444 487.52 488.674 489.386 489.808 490.272 490.433 490.634 491.049 491.512 491.775 491.949 492.095 492.234 492.656 492.921 493.08 493.236 493.321 493.357 -9999 -9999 -9999
-9999 -9999 -9999 -9999 -9999 -9999 -9999 -9999 -9999 -9999 -9999 -9999 -9999 -9999 -9999 -9999 -9999 -9999 -9999 -9999 -9999 -9999 -9999 -9999 -9999 -9999 -9999 -9999 -9999 -9999 -9999 -9999 -9999 -9999 -9999 -9999 -9999 -9999 -9999 -9999 -9999 -9999 -9999 -9999 -9999 -9999 -9999 -9999 -9999 -9999 -9999 -9999 -9999 -9999 -9999 -9999 -9999 -9999 -9999 -9999 -9999 -9999 -9999 -9999 -9999 -9999 -9999 -9999 -9999 -9999 -9999 -9999 -9999 -9999 -9999 -9999 -9999 -9999 -9999 -9999 -9999 391.968 392.398 392.229 392.071 391.746 391.247 391.293 391.968 392.054 391.945 392.207 392.715 392.669 392.245 391.952 392.086 392.749 395.156 399.703 400.06 400.616 403.059 404.358 405.237 406.759 407.889 408.917 410.447 412.731 413.241 413.12 413.206 413.651 414.462 414.521 414.735 416.01 419.987 421.272 420.432 419.881 419.764 420.083 420.85 421.788 423.091 424.212 424.83 425.375 426.691 428.007 429.272 430.265 430.078 430.45 431.635 432.631 433.923 435.114 435.417 434.945 433.99 432.704 431.559 431.231 431.292 430.949 430.192 429.772 430.308 431.423 433.216 434.848 436.101 436.434 437.29 439.277 441.146 441.731 442.005 441.588 441.086 441.179 440.715 439.94 440.193 440.84 441.098 442.844 444.905 445.377 445.405 444.982 443.498 443.144 443.969 444.46 445.417 450.225 453.376 454.52 454.872 455.665 456.205 456.696 457.672 459.913 461.536 462.518 464.03 466.711 468.96 469.813 469.39 467.799 465.829 464.324 463.511 462.605 462.095 462.621 464.04 464.954 466.045 466.882 467.312 467.957 468.924 469.622 470.844 472.033 472.884 473.203 474.598 477.376 478.833 479.4 480.298 480.983 478.057 475.27 475.804 476.159 476.459 477.128 477.803 478.905 480.364 482.025 483.501 484.245 484.505 484.656 484.855 484.929 485.062 484.701 484.027 483.679 483.501 483.517 483.684 484.047 484.39 484.667 485.053 486.001 487.5 488.448 488.902 489.357 489.591 489.928 490.282 490.598 490.845 491.161 491.587 491.818 492.275 492.407 492.414 492.559 492.593 492.585 -9999 -9999 -9999
-9999 -9999 -9999 -9999 -9999 -9999 -9999 -9999 -9999 -9999 -9999 -9999 -9999 -9999 -9999 -9999 -9999 -9999 -9999 -9999 -9999 -9999 -9999 -9999 -9999 -9999 -9999 -9999 -9999 -9999 -9999 -9999 -9999 -9999 -9999 -9999 -9999 -9999 -9999 -9999 -9999 -9999 -9999 -9999 -9999 -9999 -9999 -9999 -9999 -9999 -9999 -9999 -9999 -9999 -9999 -9999 -9999 -9999 -9999 -9999 -9999 -9999 -9999 -9999 -9999 -9999 -9999 -9999 -9999 -9999 -9999 -9999 -9999 -9999 -9999 -9999 -9999 -9999 -9999 -9999 -9999 391.532 391.916 392.116 391.899 391.401 390.841 390.616 391.958 391.887 391.722 391.968 392.244 392.198 391.959 391.8 391.957 392.736 394.408 397.202 399.048 399.75 401.72 402.37 403.507 405.451 406.519 407.721 409.373 412.232 412.45 412.436 412.504 412.648 413.305 413.323 413.796 415.148 417.081 419.644 419.154 418.215 418.264 418.667 419.517 420.138 421.524 423.168 423.7 424.044 425.096 427.067 428.271 428.622 428.501 429.004 429.845 430.689 432.003 433.249 432.972 432.478 431.909 430.658 429.854 429.81 429.811 429.434 428.688 428.069 428.283 429.283 430.694 432.246 433.512 434.538 435.953 437.787 439.227 439.995 440.076 439.45 439.06 439.156 438.82 438.25 438.474 439.329 440.306 442.239 444.241 444.62 444.598 444.341 442.898 442.344 442.703 443.27 447.492 450.736 453.862 454.578 454.74 455.397 455.947 456.638 457.919 459.974 461.682 463.048 464.796 467.316 469.253 470.215 469.666 467.215 464.545 462.904 462.303 461.644 461.825 462.704 463.598 464.045 464.5 465.423 466.513 467.415 468.337 469.656 471.058 472.196 473.2 474.59 476.312 477.819 479.053 479.957 480.904 480.305 476.664 474.744 475.09 475.619 476.056 476.412 477.225 478.455 479.967 481.604 483.022 483.982 484.374 484.333 484.256 484.09 483.715 483.194 482.707 482.534 482.478 482.545 482.808 483.391 483.822 484.058 484.115 484.848 486.778 487.761 488.281 488.661 489.013 489.378 489.722 490.005 490.211 490.687 491.262 491.532 491.768 491.642 491.701 491.91 491.913 491.768 -9999 -9999 -9999
-9999 -9999 -9999 -9999 -9999 -9999 -9999 -9999 -9999 -9999 -9999 -9999 -9999 -9999 -9999 -9999 -9999 -9999 -9999 -9999 -9999 -9999 -9999 -9999 -9999 -9999 -9999 -9999 -9999 -9999 -9999 -9999 -9999 -9999 -9999 -9999 -9999 -9999 -9999 -9999 -9999 -9999 -9999 -9999 -9999 -9999 -9999 -9999 -9999 -9999 -9999 -9999 -9999 -9999 -9999 -9999 -9999 -9999 -9999 -9999 -9999 -9999 -9999 -9999 -9999 -9999 -9999 -9999 -9999 -9999 -9999 -9999 -9999 -9999 -9999 -9999 -9999 -9999 -9999 -9999 390.138 391.182 391.649 391.946 391.396 390.751 390.825 391.038 392.24 391.362 391.458 391.7 391.819 391.661 391.658 391.586 391.603 392.634 394.011 396.039 397.596 398.902 400.192 400.374 401.314 403.892 405.377 406.803 408.232 409.39 409.921 410.895 411.162 411.202 411.995 412.224 412.882 414.122 415.163 417.514 417.292 416.776 417.284 417.767 418.389 418.849 419.864 421.639 422.158 422.523 423.824 426.465 427.564 427.592 427.545 428.039 428.719 429.316 430.19 430.953 430.977 430.787 429.796 428.695 428.416 428.581 428.557 428.17 427.369 426.69 426.621 427.359 428.744 429.782 431.085 433.215 435.259 436.965 438.039 438.416 438.371 437.717 437.376 437.375 437.078 436.67 437.075 438.323 440.184 442.217 443.317 443.714 443.75 443.376 442.013 442.512 443.342 445.487 449.211 450.948 453.747 454.427 454.764 455.391 456.042 457.042 458.552 460.327 461.968 463.513 465.413 467.804 469.375 470.173 469.1 466.268 463.383 461.901 460.956 460.83 461.518 462.729 463.185 463.363 463.576 464.695 466.244 467.121 468.361 470.049 471.501 472.856 473.898 475.511 477.087 478.012 479.392 480.494 481.178 479.163 475.416 474.345 474.261 474.475 474.977 475.608 476.649 477.912 479.137 480.223 481.397 482.843 483.862 484.01 483.735 483.129 482.634 482.148 481.579 481.498 481.605 481.726 482.054 482.916 483.433 483.549 483.624 484.295 486.446 487.355 487.719 487.974 488.38 488.87 489.18 489.526 489.748 490.291 491.039 491.378 491.188 490.941 491.139 491.258 491.097 -9999 -9999 -9999 -9999
-9999 -9999 -9999 -9999 -9999 -9999 -9999 -9999 -9999 -9999 -9999 -9999 -9999 -9999 -9999 -9999 -9999 -9999 -9999 -9999 -9999 -9999 -9999 -9999 -9999 -9999 -9999 -9999 -9999 -9999 -9999 -9999 -9999 -9999 -9999 -9999 -9999 -9999 -9999 -9999 -9999 -9999 -9999 -9999 -9999 -9999 -9999 -9999 -9999 -9999 -9999 -9999 -9999 -9999 -9999 -9999 -9999 -9999 -9999 -9999 -9999 -9999 -9999 -9999 -9999 -9999 -9999 -9999 -9999 -9999 -9999 -9999 -9999 -9999 -9999 -9999 -9999 -9999 -9999 389.225 389.664 390.524 391.21 391.529 391.003 390.451 390.843 391.69 392.233 391.311 390.96 391.248 391.419 391.397 391.368 391.23 391.147 391.944 393.158 394.947 396.301 397.889 399.015 399.136 399.573 401.314 403.854 405.676 407.12 407.462 407.636 408.192 408.913 409.677 410.55 411.257 412.238 413.233 414.103 415.172 415.544 416.014 416.595 417.249 417.875 418.103 418.709 419.928 420.862 421.092 422.12 425.445 427.042 427.037 426.727 426.815 427.384 428.079 428.797 429.443 429.299 428.574 427.611 427.024 427.037 427.281 427.382 427.027 426.212 425.241 424.428 425.069 426.517 427.614 429.088 431.846 434.16 435.684 436.294 436.534 436.646 436.349 435.832 435.646 435.352 435.128 436.039 437.855 440.081 442.148 442.743 442.944 442.963 442.873 442.556 442.991 445.26 447.514 448.941 450.695 453.131 454.018 454.547 455.282 456.006 457.126 458.651 460.367 462.004 463.565 465.405 467.598 469.028 469.673 468.333 465.685 462.647 461.066 460.344 460.739 461.668 462.171 462.397 462.624 463.051 464.127 465.807 466.839 468.563 470.206 471.776 473.415 474.31 475.985 477.908 478.868 479.658 480.682 481.201 479.415 475.622 473.918 473.296 473.005 473.375 474.707 476.012 477.199 477.979 478.245 479.264 481.422 483.227 483.699 483.154 482.312 481.598 479.991 480.24 480.495 480.703 480.749 480.998 481.839 483.003 483.048 483.112 483.459 485.314 486.57 487.084 487.34 487.619 488.207 488.653 489.032 489.358 490.145 490.869 490.866 490.523 490.481 490.53 490.507 490.412 -9999 -9999 -9999 -9999
-9999 -9999 -9999 -9999 -9999 -9999 -9999 -9999 -9999 -9999 -9999 -9999 -9999 -9999 -9999 -9999 -9999 -9999 -9999 -9999 -9999 -9999 -9999 -9999 -9999 -9999 -9999 -9999 -9999 -9999 -9999 -9999 -9999 -9999 -9999 -9999 -9999 -9999 -9999 -9999 -9999 -9999 -9999 -9999 -9999 -9999 -9999 -9999 -9999 -9999 -9999 -9999 -9999 -9999 -9999 -9999 -9999 -9999 -9999 -9999 -9999 -9999 -9999 -9999 -9999 -9999 -9999 -9999 -9999 -9999 -9999 -9999 -9999 -9999 -9999 -9999 -9999 -9999 386.019 388.688 389.257 389.94 390.573 390.721 390.568 390.877 391.397 392.065 392.136 391.327 390.686 390.901 391.081 391.076 391.044 390.905 390.931 391.643 392.565 393.926 395.205 396.954 398.284 398.435 398.833 400.148 402.683 404.766 405.97 406.428 406.859 407.369 408.124 408.888 409.763 410.548 411.619 412.635 413.421 414.066 414.598 415.276 416.051 416.596 417.197 417.55 418.101 419.221 420.145 420.358 420.817 423.361 426.414 426.51 426.006 425.495 425.874 426.763 427.534 427.58 427.195 426.589 425.63 425.512 425.726 425.907 426.218 426.025 425.141 423.679 422.516 422.984 424.189 425.748 427.882 430.72 432.978 434.299 434.608 434.878 435.01 434.84 434.489 434.034 433.402 433.37 435.057 437.468 439.803 441.747 442.398 442.216 442.161 442.326 442.414 443.082 445.155 447.311 448.534 450.168 452.485 453.594 454.426 455.147 455.89 457.044 458.65 460.407 462.044 463.708 465.592 467.625 468.989 468.685 467.485 465.148 461.815 460.069 460.197 460.815 461.333 461.403 461.545 461.604 462.135 463.951 465.705 467.099 468.575 470.175 472.17 473.566 474.111 475.818 477.955 478.655 479.597 481.129 480.615 478.345 475.796 473.942 472.829 471.843 472.289 474.134 475.445 476.424 476.957 477.158 478.999 481.425 482.653 482.3 481.506 480.815 480.097 479.101 479.41 479.843 479.935 479.773 480.027 481.006 482.298 482.528 482.654 482.917 483.895 485.33 486.219 486.649 487.027 487.528 487.991 488.344 488.854 489.591 490.15 490.158 489.911 489.767 489.79 489.797 489.783 -9999 -9999 -9999 -9999
-9999 -9999 -9999 -9999 -9999 -9999 -9999 -9999 -9999 -9999 -9999 -9999 -9999 -9999 -9999 -9999 -9999 -9999 -9999 -9999 -9999 -9999 -9999 -9999 -9999 -9999 -9999 -9999 -9999 -9999 -9999 -9999 -9999 -9999 -9999 -9999 -9999 -9999 -9999 -9999 -9999 -9999 -9999 -9999 -9999 -9999 -9999 -9999 -9999 -9999 -9999 -9999 -9999 -9999 -9999 -9999 -9999 -9999 -9999 -9999 -9999 -9999 -9999 -9999 -9999 -9999 -9999 -9999 -9999 -9999 -9999 -9999 -9999 -9999 -9999 -9999 -9999 -9999 385.947 388.019 388.975 389.523 389.946 389.966 390.112 391.166 392.029 392.122 392.136 391.701 390.954 390.472 390.643 390.674 390.656 390.683 390.727 391.281 392.252 393.513 394.376 396.31 397.899 398.13 398.579 399.81 401.781 403.913 404.917 405.624 406.26 406.954 407.681 408.499 409.373 410.166 411.002 411.841 412.596 413.363 413.901 414.543 415.313 415.85 416.398 416.816 417.358 418.66 419.625 419.718 419.924 420.922 424.181 425.398 424.856 424.286 424.634 425.509 426.085 425.823 425.601 424.427 423.852 424.143 424.365 424.469 424.74 424.85 423.804 422.203 421.146 421.049 421.922 424.17 426.989 429.463 431.577 432.568 432.842 433.384 433.305 433.155 433.165 432.758 432.106 431.99 434.346 437.421 439.211 441.486 442.253 441.193 441.093 441.278 440.145 442.616 444.96 446.549 448.194 449.801 451.698 453.017 454.193 454.89 455.531 456.751 458.511 460.339 461.817 463.712 465.873 467.619 469.003 469.282 467.902 464.813 461.095 459.743 460.132 460.506 460.682 460.551 460.397 460.654 461.635 463.981 465.875 467.309 468.946 470.498 471.924 473.122 473.252 474.112 475.69 476.82 478.457 479.818 477.141 475.773 474.693 473.673 473.025 472.454 472.821 473.998 474.958 475.582 475.995 478.083 480.883 481.552 480.385 479.746 479.257 478.85 478.414 478.218 478.964 479.117 479.069 479.018 479.458 480.505 481.554 481.786 482.099 482.468 482.888 483.573 484.434 485.419 486.256 486.844 487.275 487.463 487.933 488.597 489.174 489.164 489.08 489.044 489.103 489.242 489.283 -9999 -9999 -9999 -9999
-9999 -9999 -9999 -9999 -9999 -9999 -9999 -9999 -9999 -9999 -9999 -9999 -9999 -9999 -9999 -9999 -9999 -9999 -9999 -9999 -9999 -9999 -9999 -9999 -9999 -9999 -9999 -9999 -9999 -9999 -9999 -9999 -9999 -9999 -9999 -9999 -9999 -9999 -9999 -9999 -9999 -9999 -9999 -9999 -9999 -9999 -9999 -9999 -9999 -9999 -9999 -9999 -9999 -9999 -9999 -9999 -9999 -9999 -9999 -9999 -9999 -9999 -9999 -9999 -9999 -9999 -9999 -9999 -9999 -9999 -9999 -9999 -9999 -9999 -9999 -9999 -9999 386.766 386.291 385.872 388.271 388.995 389.434 389.394 389.804 391.181 391.978 392.093 392.023 391.504 390.802 389.773 389.85 389.995 390.364 390.505 390.581 390.972 392.17 393.63 393.726 395.595 397.459 397.748 398.325 399.514 400.873 402.606 404.098 404.958 405.713 406.416 407.193 408.082 409.042 409.837 410.595 411.246 411.862 412.532 413.402 414.004 414.585 415.112 415.677 416.009 416.572 417.954 419.009 419.009 419.212 419.753 421.107 422.478 423.461 423.782 423.885 424.464 424.735 424.106 423.422 422.507 422.541 422.844 423.014 422.984 422.947 422.855 422.093 420.896 420.029 419.474 420.037 422.851 425.92 427.96 429.727 430.706 431.069 431.592 431.529 431.399 431.472 431.243 430.629 430.503 433.169 437.07 437.817 440.206 442.123 440.547 440.06 439.984 439.191 441.471 444.332 446.045 447.936 449.716 451.279 452.542 453.835 454.244 454.663 456.1 458.049 460.102 461.459 462.975 465.3 467.406 468.513 468.293 466.383 462.989 459.643 459.488 459.958 460.193 460.036 459.772 459.717 460.269 461.647 463.904 465.997 467.343 469.204 471.027 471.78 472.393 472.396 472.674 473.562 474.779 475.882 475.376 474.359 474.003 473.331 472.863 472.396 472.293 472.623 473.641 474.506 474.988 475.628 478.123 479.959 479.371 478.173 477.732 477.615 477.409 477.007 476.709 478.343 478.55 478.502 478.644 478.929 480.115 480.847 481.049 481.51 482.083 482.316 482.672 483.049 483.539 484.444 485.314 485.897 486.412 486.827 487.348 487.816 487.88 487.96 487.907 488.073 488.286 488.483 -9999 -9999 -9999 -9999
-9999 -9999 -9999 -9999 -9999 -9999 -9999 -9999 -9999 -9999 -9999 -9999 -9999 -9999 -9999 -9999 -9999 -9999 -9999 -9999 -9999 -9999 -9999 -9999 -9999 -9999 -9999 -9999 -9999 -9999 -9999 -9999 -9999 -9999 -9999 -9999 -9999 -9999 -9999 -9999 -9999 -9999 -9999 -9999 -9999 -9999 -9999 -9999 -9999 -9999 -9999 -9999 -9999 -9999 -9999 -9999 -9999 -9999 -9999 -9999 -9999 -9999 -9999 -9999 -9999 -9999 -9999 -9999 -9999 -9999 -9999 -9999 -9999 -9999 -9999 -9999 387.531 387.583 386.186 382.419 386.927 388.419 388.781 388.742 389.367 391.021 391.814 391.796 391.499 391.091 390.682 389.348 388.891 389.358 390.029 390.199 390.345 390.667 391.509 392.389 393.083 394.358 396.166 396.941 397.952 399.19 400.165 401.422 403.346 404.413 405.122 405.634 406.265 407.329 408.656 409.422 409.832 410.462 411.019 411.584 412.774 413.606 413.927 414.17 414.685 415.253 415.901 417.033 417.721 417.96 418.345 418.802 420.081 421.372 422.711 423.314 423.282 423.361 423.392 422.497 421.769 421.492 421.464 421.547 421.622 421.678 421.582 421.168 420.447 419.51 418.657 417.86 418.626 421.546 424.452 426.376 427.864 428.902 429.732 430.164 429.985 429.727 429.493 428.82 428.309 428.907 431.582 436.385 434.13 434.928 441.144 439.877 439.099 438.66 439.524 441.152 443.556 445.334 447.722 449.585 450.897 452.005 453.446 453.895 454.02 455.204 457.294 459.583 461.193 463.293 465.095 466.887 466.996 465.391 462.774 460.313 459.329 459.482 459.686 459.673 459.267 459.061 459.338 459.967 461.035 463.899 465.766 467.051 468.646 470.409 471.534 471.825 471.506 471.475 471.822 472.839 473.739 473.149 473.169 472.866 472.17 471.921 471.615 471.593 471.855 472.881 474.072 474.749 475.257 476.695 476.715 475.728 475.975 476.582 476.942 476.697 476.227 476.51 477.825 477.974 477.957 478.259 478.985 479.781 480.32 480.724 481.318 481.741 481.844 482.164 482.208 481.861 482.112 482.956 483.98 484.838 485.407 485.896 486.37 486.292 485.765 485.616 486.407 486.953 487.291 -9999 -9999 -9999 -9999
